# .PCD v.7 - Point Cloud Data file format
VERSION .7
FIELDS x y z
SIZE 4 4 4
TYPE F F F
COUNT 1 1 1
WIDTH 1709
HEIGHT 1
POINTS 1709
DATA ascii
1.167060 0.245199 -1.102372
1.167990 0.180586 -1.102109
1.167823 0.237887 -1.101693
1.169505 0.217745 -1.099657
1.167099 0.230290 -1.099657
1.157301 0.220988 -1.098699
1.167048 0.222849 -1.098300
1.129899 0.268333 -1.102056
1.131622 0.301977 -1.101774
1.131622 0.301977 -1.101774
1.133905 0.293289 -1.101774
1.134976 0.286148 -1.101089
1.140495 0.304345 -1.100745
1.139044 0.353172 -1.102372
1.132873 0.334187 -1.101427
1.139083 0.309590 -1.100745
1.147324 0.283652 -1.102109
1.147907 0.278197 -1.101427
1.152912 0.301982 -1.101693
1.144136 0.333697 -1.101694
1.143811 0.337413 -1.102372
1.164691 0.339692 -1.102009
1.141177 0.298908 -1.100063
1.152795 0.290640 -1.098978
1.148667 0.312195 -1.100336
1.148672 0.306527 -1.098978
1.178537 0.182217 -1.102372
1.175706 0.204004 -1.103051
1.180714 0.182553 -1.104409
1.182909 0.220240 -1.102563
1.196643 0.217105 -1.104698
1.207956 0.219157 -1.105404
1.208220 0.213466 -1.104734
1.193899 0.235578 -1.105371
1.181922 0.233215 -1.103914
1.181199 0.233072 -1.103239
1.176878 0.264277 -1.105265
1.175439 0.263954 -1.103914
1.183674 0.248689 -1.098647
1.183269 0.281008 -1.104699
1.181772 0.327040 -1.104066
1.175188 0.352556 -1.104734
1.172842 0.357743 -1.104066
1.172960 0.274761 -1.103914
1.176431 0.343116 -1.103396
1.181828 0.280666 -1.103354
1.193731 0.283493 -1.104735
1.195855 0.358756 -1.104587
1.208490 0.316540 -1.105250
1.204080 0.327256 -1.103925
1.191562 0.282977 -1.102727
1.200713 0.290994 -1.102700
1.202183 0.281606 -1.102034
1.198410 0.284604 -1.099371
1.218098 0.215212 -1.104032
1.215604 0.284750 -1.104588
1.214725 0.288478 -1.104588
1.209837 0.299107 -1.102600
1.213848 0.323920 -1.101767
1.215301 0.324307 -1.103085
1.215137 0.276787 -1.102600
1.215569 0.314412 -1.101107
1.218241 0.205614 -1.102700
1.218875 0.301341 -1.101107
1.220623 0.181062 -1.101368
1.209051 0.175557 -1.100051
1.218958 0.176995 -1.099371
1.216246 0.261382 -1.100612
1.222885 0.320310 -1.098899
1.215457 0.180296 -1.096707
1.229623 0.178544 -1.099287
1.231292 0.182645 -1.101274
1.224145 0.233752 -1.102600
1.228153 0.228664 -1.105250
1.228882 0.207410 -1.102600
1.232780 0.202238 -1.105250
1.232033 0.182755 -1.101937
1.235505 0.235921 -1.103085
1.236244 0.236062 -1.103745
1.239385 0.218973 -1.103745
1.227880 0.279690 -1.104404
1.225409 0.287047 -1.103745
1.230485 0.264443 -1.103745
1.224633 0.296791 -1.105063
1.230904 0.310333 -1.103491
1.239107 0.272267 -1.102835
1.231441 0.353019 -1.103817
1.239970 0.324785 -1.104469
1.225044 0.326907 -1.102179
1.236246 0.281595 -1.102179
1.239714 0.355391 -1.101464
1.270082 0.178454 -1.105122
1.244204 0.204112 -1.105723
1.253206 0.211516 -1.104803
1.252964 0.217410 -1.105459
1.261956 0.228954 -1.105122
1.303164 0.189222 -1.104952
1.301368 0.201208 -1.104952
1.336978 0.206714 -1.105336
1.286665 0.223257 -1.105518
1.315715 0.259614 -1.105504
1.404086 0.177552 -1.105728
1.415080 0.185563 -1.105052
1.411747 0.209413 -1.105052
1.407291 0.237522 -1.105052
1.442016 0.182349 -1.105267
1.538419 0.189746 -1.105658
1.520725 0.206539 -1.104816
1.522566 0.290736 -1.105658
1.260101 0.295173 -1.105361
1.252674 0.275248 -1.105122
1.331510 0.299001 -1.105087
1.313323 0.324691 -1.105336
1.325536 0.327711 -1.105716
1.374685 0.333157 -1.105112
1.271472 0.345572 -1.105595
1.295742 0.345773 -1.105504
1.267500 0.357052 -1.104952
1.409397 0.355334 -1.105267
1.264892 0.207506 -1.104470
1.287159 0.211159 -1.104226
1.310604 0.212941 -1.104311
1.242903 0.198029 -1.103745
1.301062 0.192994 -1.103666
1.254516 0.193964 -1.103491
1.253610 0.199735 -1.103491
1.403060 0.173051 -1.104497
1.415677 0.174607 -1.104440
1.401740 0.177256 -1.103881
1.414892 0.174510 -1.103828
1.426986 0.180448 -1.103684
1.537937 0.180113 -1.104497
1.273116 0.333467 -1.104309
1.250804 0.220990 -1.104147
1.250804 0.220990 -1.104147
1.320859 0.222934 -1.104232
1.343046 0.233040 -1.103828
1.324944 0.265661 -1.104071
1.264338 0.201444 -1.103164
1.259720 0.228549 -1.103164
1.240286 0.209335 -1.103085
1.268501 0.297141 -1.102934
1.325812 0.253165 -1.102805
1.310316 0.323948 -1.102805
1.385822 0.194716 -1.103225
1.370842 0.338912 -1.103265
1.370842 0.338912 -1.103265
1.383969 0.335407 -1.102603
1.411997 0.178553 -1.101991
1.241572 0.191963 -1.101767
1.419108 0.219412 -1.101858
1.253442 0.185931 -1.101523
1.246804 0.226205 -1.101523
1.273754 0.196938 -1.100814
1.264700 0.349990 -1.101095
0.727988 0.380545 -1.110126
0.857104 0.386238 -1.110503
0.857695 0.383343 -1.109740
0.859450 0.379392 -1.109740
0.824372 0.399224 -1.111140
0.812343 0.402671 -1.109704
0.832296 0.398344 -1.109439
0.859652 0.398546 -1.109432
0.793075 0.367680 -1.108867
0.791375 0.371326 -1.108867
0.776118 0.384715 -1.108731
0.815445 0.394901 -1.108930
0.820813 0.402174 -1.108825
0.800284 0.369532 -1.108173
0.798002 0.374435 -1.108173
0.847990 0.382131 -1.108466
0.777233 0.398727 -1.108082
0.742470 0.398324 -1.108035
0.807684 0.391143 -1.108210
0.843255 0.390944 -1.107700
0.841447 0.394820 -1.107700
0.822082 0.398115 -1.108053
0.915151 0.403980 -1.111001
0.872095 0.373837 -1.110953
0.929500 0.415436 -1.111077
0.925133 0.403310 -1.111067
0.936493 0.376179 -1.111067
0.946481 0.375141 -1.111077
0.954765 0.378425 -1.111030
0.959898 0.365208 -1.111030
0.959898 0.365208 -1.111030
0.965448 0.377528 -1.111657
0.969604 0.389479 -1.110766
0.900294 0.371297 -1.110467
0.957574 0.369377 -1.110296
0.937590 0.371617 -1.110327
0.950307 0.361559 -1.109602
0.960667 0.385889 -1.110195
0.912671 0.407914 -1.110258
0.911415 0.410712 -1.110258
0.911415 0.410712 -1.110258
0.918888 0.414080 -1.109587
0.928172 0.392829 -1.109587
0.934526 0.402297 -1.110340
0.866843 0.382655 -1.109432
0.868594 0.378662 -1.109432
0.869731 0.374404 -1.108672
0.891561 0.367695 -1.109423
0.865073 0.386640 -1.109432
0.869447 0.396624 -1.109075
0.877742 0.376257 -1.108318
0.903376 0.403760 -1.108641
0.939338 0.387399 -1.108865
0.948002 0.365685 -1.108865
0.955232 0.373533 -1.109561
0.961799 0.381213 -1.109463
0.916361 0.418025 -1.108847
0.964711 0.397864 -1.109309
0.975614 0.418212 -1.108829
0.916986 0.394746 -1.108772
0.918927 0.410710 -1.108106
0.964630 0.372099 -1.108732
0.955183 0.393934 -1.108001
0.795610 0.420566 -1.111319
0.885011 0.428590 -1.111450
0.896905 0.424205 -1.111626
0.904306 0.427705 -1.111002
0.809119 0.429297 -1.111140
0.925672 0.422272 -1.110340
0.896997 0.420885 -1.110133
0.774632 0.423262 -1.109738
0.803509 0.420022 -1.109705
0.791905 0.424845 -1.109764
0.800916 0.424944 -1.109705
0.779099 0.430370 -1.108996
0.780522 0.426480 -1.108216
0.797077 0.430774 -1.108930
0.797837 0.428028 -1.108156
0.810777 0.420660 -1.108053
0.942622 0.424775 -1.108732
0.932541 0.425406 -1.108827
0.895791 0.420320 -1.108641
0.921879 0.425678 -1.108128
0.880054 0.431201 -1.107706
0.939911 0.434004 -1.110195
0.808795 0.446774 -1.110977
0.743366 0.447108 -1.110307
0.916319 0.443752 -1.111077
0.886313 0.444430 -1.110879
0.943963 0.446461 -1.110037
0.736060 0.442713 -1.109337
0.893030 0.447798 -1.109515
0.804893 0.431813 -1.108053
0.785530 0.433922 -1.108210
0.765628 0.436831 -1.108173
0.897922 0.434843 -1.108029
0.954920 0.440935 -1.108372
0.874017 0.443309 -1.107705
0.901820 0.447024 -1.108106
0.731954 0.449469 -1.109337
0.735194 0.459261 -1.109519
0.736253 0.455225 -1.107943
0.741301 0.450524 -1.110307
0.743517 0.459717 -1.108867
0.777410 0.448308 -1.108210
0.776426 0.452515 -1.109764
0.802422 0.452942 -1.107901
0.829414 0.458163 -1.109432
0.829414 0.458163 -1.109432
0.839191 0.458537 -1.109833
0.789160 0.459936 -1.108053
0.880093 0.456623 -1.110879
0.873737 0.448234 -1.109952
0.901556 0.452073 -1.110327
0.910106 0.456360 -1.111077
0.949120 0.459637 -1.111274
0.912196 0.452167 -1.111077
0.952066 0.450293 -1.109823
0.949983 0.454670 -1.109823
0.868511 0.454002 -1.107705
0.871077 0.451945 -1.109203
0.878911 0.456010 -1.109387
0.930535 0.450637 -1.108732
0.940044 0.449913 -1.107852
0.875387 0.462738 -1.109387
0.876917 0.458396 -1.108641
0.955342 0.462650 -1.108829
0.805259 0.469319 -1.110765
0.739778 0.466871 -1.109653
0.750273 0.463894 -1.108956
0.741393 0.463134 -1.108867
0.787583 0.463886 -1.108824
0.833225 0.465286 -1.107560
0.843025 0.465682 -1.107914
0.746498 0.471112 -1.109738
0.784916 0.472098 -1.111139
0.772624 0.474443 -1.109705
0.743069 0.475348 -1.108956
0.833349 0.470399 -1.110590
0.936813 0.464369 -1.111494
0.865076 0.467524 -1.111450
0.946377 0.463697 -1.110548
0.859576 0.474825 -1.109952
0.870084 0.475417 -1.110879
0.921134 0.472550 -1.110195
0.972508 0.476501 -1.111701
0.911380 0.467545 -1.108093
0.887547 0.476155 -1.108847
0.888139 0.476473 -1.109587
0.897707 0.474536 -1.108128
0.939607 0.471153 -1.107647
0.920527 0.472238 -1.109463
0.959104 0.475419 -1.108503
0.941766 0.466825 -1.107646
0.725858 0.488231 -1.109653
0.736955 0.485903 -1.109738
0.734711 0.489290 -1.109738
0.748610 0.483762 -1.110555
0.729288 0.480848 -1.108082
0.774680 0.483927 -1.108053
0.754259 0.487412 -1.108987
0.790561 0.488804 -1.107700
0.733485 0.493361 -1.111303
0.789939 0.493459 -1.109998
0.776737 0.496886 -1.108670
0.796382 0.514633 -1.110193
0.733999 0.532250 -1.109705
0.740487 0.536954 -1.109596
0.795399 0.529706 -1.109075
0.724826 0.515486 -1.108216
0.741838 0.519064 -1.108156
0.780860 0.520023 -1.108213
0.790528 0.521226 -1.108672
0.795291 0.513928 -1.108672
0.829878 0.509601 -1.110467
0.797648 0.510263 -1.108672
0.798511 0.493720 -1.108977
0.804697 0.482317 -1.108213
0.809732 0.492113 -1.109432
0.810550 0.523789 -1.110178
0.810550 0.523789 -1.110178
0.808131 0.527513 -1.110178
0.820358 0.524790 -1.110467
0.824778 0.532983 -1.109952
0.799694 0.522006 -1.108318
0.796739 0.525321 -1.107560
0.812400 0.519699 -1.109423
0.821762 0.536411 -1.109203
0.822447 0.519043 -1.108964
0.861764 0.491682 -1.111625
0.837981 0.493570 -1.108964
0.845016 0.513557 -1.107895
0.845016 0.513557 -1.107895
0.843884 0.521774 -1.111625
0.833981 0.520971 -1.111450
0.835242 0.516430 -1.109952
0.837920 0.528808 -1.110133
0.861290 0.523447 -1.109587
0.853714 0.518843 -1.109515
0.841619 0.520373 -1.108641
0.832977 0.532863 -1.107895
0.840987 0.537987 -1.108772
0.738521 0.540732 -1.110368
0.862911 0.539043 -1.110340
0.818178 0.539457 -1.107705
0.838502 0.541851 -1.108772
0.815687 0.543217 -1.107705
0.847886 0.542400 -1.108106
0.744487 0.545100 -1.109439
0.741456 0.548140 -1.108670
0.812045 0.549828 -1.108454
0.834597 0.550282 -1.110258
0.724371 0.556418 -1.108053
0.747407 0.552539 -1.107700
0.746401 0.557126 -1.109998
0.797384 0.557930 -1.109715
0.806095 0.558516 -1.108454
0.798860 0.553503 -1.108212
0.786560 0.555765 -1.107913
0.802973 0.561840 -1.107705
0.821556 0.556268 -1.111625
0.842562 0.555535 -1.111067
0.861452 0.556682 -1.109561
0.853406 0.551482 -1.108865
0.847730 0.558942 -1.108128
0.855725 0.564213 -1.108827
0.831085 0.570189 -1.109587
0.841609 0.571731 -1.110340
0.848978 0.576736 -1.110295
0.790181 0.584162 -1.110701
0.790181 0.584162 -1.110701
0.804402 0.594675 -1.111002
0.821894 0.584520 -1.110327
0.831495 0.587515 -1.111077
0.738874 0.593216 -1.109432
0.818649 0.587904 -1.109587
0.853113 0.585301 -1.109463
0.847690 0.593128 -1.109463
0.782035 0.578139 -1.108964
0.726911 0.567287 -1.108670
0.741088 0.589406 -1.108672
0.786789 0.570530 -1.108212
0.811290 0.567659 -1.109387
0.802296 0.578027 -1.107895
0.844635 0.579485 -1.108093
0.837109 0.591482 -1.108827
0.837109 0.591482 -1.108827
0.917552 0.501354 -1.111494
0.882814 0.487661 -1.110327
0.906637 0.481037 -1.110296
0.902921 0.487977 -1.110295
0.936585 0.502464 -1.110273
0.935039 0.505335 -1.110273
0.972655 0.493339 -1.109818
0.897797 0.495938 -1.109561
0.867713 0.495076 -1.109515
0.883869 0.482949 -1.108847
0.879386 0.491063 -1.108847
0.897203 0.495610 -1.108827
0.867131 0.494744 -1.108772
0.874245 0.498803 -1.108106
0.894320 0.499403 -1.108093
0.921214 0.488771 -1.108581
0.952449 0.488614 -1.108503
0.929735 0.493292 -1.109097
0.958810 0.497465 -1.108835
0.923007 0.504334 -1.108372
0.965285 0.504589 -1.108391
0.879040 0.512320 -1.110340
0.889105 0.512719 -1.110296
0.882593 0.519847 -1.108092
0.870146 0.523362 -1.108128
0.915361 0.522262 -1.110548
0.912970 0.520897 -1.107647
0.877653 0.533392 -1.111030
0.880098 0.529347 -1.111030
0.868883 0.528062 -1.109602
0.893215 0.526103 -1.111657
0.911111 0.531011 -1.111274
0.890277 0.524372 -1.108001
0.961664 0.515918 -1.110531
0.939994 0.513616 -1.109222
0.924256 0.538672 -1.107783
0.950987 0.531046 -1.108391
0.953420 0.526664 -1.108391
0.961342 0.531040 -1.107889
0.949753 0.536106 -1.109818
0.871780 0.574799 -1.110037
0.873245 0.558623 -1.111658
0.876657 0.553254 -1.111658
0.878037 0.548492 -1.110195
0.877033 0.566751 -1.110037
0.876301 0.547408 -1.108001
0.876013 0.583391 -1.109097
0.878114 0.578975 -1.108372
0.884461 0.552505 -1.108580
0.886786 0.553957 -1.111494
0.883983 0.571242 -1.109097
0.890424 0.546781 -1.110766
0.893809 0.558345 -1.110548
0.912209 0.560158 -1.108503
0.923673 0.561360 -1.109552
0.920485 0.565240 -1.108835
0.902967 0.595362 -1.110268
0.899080 0.580998 -1.108503
0.923784 0.577069 -1.108391
0.923784 0.577069 -1.108391
0.925751 0.592211 -1.108599
0.940932 0.554208 -1.111244
0.942262 0.549166 -1.109818
0.936816 0.555662 -1.108391
0.935135 0.539263 -1.108119
0.941656 0.548813 -1.109105
0.933192 0.567145 -1.111244
0.942351 0.566790 -1.109310
0.946921 0.557736 -1.108599
0.933389 0.561400 -1.108391
0.930796 0.565689 -1.108391
0.930572 0.571434 -1.111244
0.940936 0.571852 -1.110730
0.934726 0.577941 -1.108599
0.939131 0.570755 -1.108599
0.932056 0.582237 -1.108599
0.942147 0.588540 -1.110865
0.942147 0.588540 -1.110865
0.963022 0.549455 -1.108743
0.952014 0.548997 -1.108599
0.956197 0.541679 -1.108599
0.964925 0.544670 -1.108036
0.960368 0.559719 -1.111572
0.968972 0.558776 -1.108823
0.954222 0.565986 -1.109450
0.955345 0.562697 -1.108743
0.965776 0.562871 -1.108119
0.967004 0.563586 -1.109527
0.953187 0.589356 -1.110935
0.973885 0.591877 -1.110184
0.960335 0.593775 -1.109539
0.960335 0.593775 -1.109539
0.959406 0.575046 -1.108823
0.955252 0.580553 -1.108119
0.964860 0.586392 -1.109539
0.754031 0.407510 -1.106965
0.734876 0.405942 -1.104055
0.729377 0.420609 -1.107239
0.741452 0.414038 -1.106728
0.732691 0.413581 -1.106443
0.736192 0.424539 -1.107521
0.724191 0.444702 -1.107521
0.743978 0.441282 -1.107155
0.740515 0.431585 -1.106965
0.739305 0.477749 -1.106608
0.741495 0.474341 -1.106608
0.726911 0.423656 -1.106443
0.737993 0.434678 -1.106175
0.747665 0.478288 -1.105876
0.732127 0.426696 -1.104348
0.756582 0.431670 -1.104941
0.728875 0.493514 -1.106608
0.728117 0.494632 -1.106608
0.733745 0.513401 -1.105879
0.724977 0.525708 -1.105879
0.733871 0.527021 -1.105833
0.726878 0.521999 -1.105102
0.728760 0.518284 -1.104324
0.731356 0.501767 -1.105096
0.737401 0.505914 -1.104324
0.732800 0.557550 -1.107132
0.730558 0.586540 -1.106687
0.729213 0.560137 -1.105595
0.726627 0.563487 -1.105595
0.735926 0.579791 -1.106687
0.745019 0.511140 -1.105833
0.749336 0.532917 -1.105595
0.746400 0.593630 -1.106802
0.754373 0.482579 -1.105879
0.750275 0.560018 -1.105924
0.754130 0.568318 -1.105630
0.751616 0.485704 -1.105102
0.743976 0.510425 -1.104284
0.784768 0.363829 -1.107155
0.792514 0.365944 -1.107297
0.789113 0.373222 -1.107297
0.767936 0.380659 -1.106965
0.784208 0.362108 -1.105579
0.767145 0.359957 -1.104348
0.775116 0.379784 -1.104791
0.776855 0.376213 -1.104791
0.780856 0.366390 -1.104003
0.768542 0.394268 -1.105579
0.780317 0.391279 -1.107297
0.779763 0.391002 -1.106511
0.783920 0.397611 -1.105043
0.760981 0.411267 -1.107155
0.783218 0.420185 -1.107436
0.784979 0.433618 -1.107433
0.766029 0.418561 -1.107297
0.782667 0.419889 -1.106656
0.789687 0.423655 -1.106656
0.771995 0.440464 -1.107436
0.774789 0.466008 -1.106607
0.781696 0.455586 -1.107381
0.779591 0.459178 -1.107381
0.791971 0.437480 -1.107381
0.787911 0.444751 -1.107381
0.786677 0.445647 -1.106607
0.792310 0.432921 -1.105058
0.774016 0.415248 -1.104260
0.779859 0.440206 -1.105878
0.779183 0.441402 -1.105879
0.790309 0.436562 -1.105058
0.785939 0.462917 -1.106509
0.787511 0.458975 -1.105738
0.759190 0.505592 -1.106509
0.764463 0.554341 -1.105630
0.763534 0.481863 -1.105058
0.760029 0.486198 -1.104284
0.765300 0.565768 -1.104530
0.767534 0.551196 -1.106391
0.768949 0.563011 -1.106045
0.767515 0.519677 -1.104636
0.768647 0.590428 -1.105204
0.773916 0.572137 -1.107159
0.772541 0.530023 -1.106687
0.770831 0.486469 -1.105738
0.771880 0.587284 -1.105956
0.775244 0.524910 -1.105924
0.774438 0.526099 -1.105924
0.775091 0.595378 -1.104710
0.777387 0.522890 -1.106687
0.778618 0.564605 -1.106404
0.777843 0.472732 -1.104195
0.781087 0.515002 -1.105160
0.781496 0.572197 -1.104452
0.784619 0.527755 -1.107151
0.789211 0.504866 -1.106687
0.786337 0.508142 -1.105924
0.785418 0.523059 -1.104870
0.787817 0.519439 -1.104870
0.784299 0.585414 -1.106207
0.788946 0.546634 -1.104140
0.790697 0.573363 -1.103961
0.796875 0.373906 -1.106608
0.799944 0.387395 -1.107436
0.801082 0.401692 -1.106656
0.801410 0.365586 -1.107390
0.800999 0.437669 -1.107281
0.796382 0.444712 -1.106510
0.811853 0.380935 -1.107433
0.813737 0.394074 -1.106607
0.806753 0.460295 -1.106934
0.793773 0.448060 -1.105738
0.798818 0.386849 -1.105876
0.796791 0.408761 -1.105879
0.801949 0.361383 -1.105825
0.802358 0.397722 -1.105878
0.807773 0.386607 -1.105879
0.809508 0.401266 -1.105832
0.823332 0.394054 -1.107281
0.831612 0.431469 -1.106687
0.822012 0.374985 -1.105833
0.823853 0.408376 -1.105594
0.825006 0.442604 -1.105924
0.796893 0.369450 -1.104260
0.796749 0.440120 -1.104195
0.793330 0.462366 -1.104057
0.797552 0.455045 -1.104057
0.804663 0.373052 -1.105096
0.803329 0.412114 -1.105058
0.806368 0.367848 -1.104316
0.807205 0.386335 -1.105102
0.811778 0.411741 -1.104195
0.809875 0.415473 -1.104195
0.815534 0.404253 -1.104195
0.850259 0.370669 -1.105402
0.831854 0.390319 -1.104826
0.828835 0.396688 -1.104826
0.840728 0.464413 -1.104895
0.830968 0.445802 -1.104109
0.833072 0.460184 -1.104530
0.837676 0.415228 -1.104397
0.841726 0.366949 -1.104057
0.801170 0.486910 -1.107450
0.797412 0.493040 -1.107450
0.792841 0.500359 -1.107450
0.818136 0.523369 -1.107460
0.804277 0.497284 -1.107151
0.808837 0.505264 -1.106802
0.808364 0.538340 -1.107460
0.827480 0.540143 -1.107149
0.840248 0.568924 -1.107391
0.794602 0.572484 -1.106956
0.802829 0.545386 -1.106708
0.828184 0.585176 -1.106653
0.813758 0.590086 -1.106626
0.792846 0.466986 -1.106363
0.799767 0.548702 -1.105956
0.800443 0.517257 -1.106045
0.810599 0.501193 -1.106045
0.810189 0.518285 -1.106404
0.812180 0.530156 -1.105956
0.809732 0.533888 -1.105956
0.824189 0.495720 -1.106404
0.824429 0.543579 -1.106403
0.831855 0.532145 -1.106403
0.831245 0.548073 -1.105799
0.843687 0.545202 -1.105886
0.849036 0.521366 -1.106543
0.823599 0.559496 -1.105799
0.833508 0.560639 -1.105886
0.838633 0.552944 -1.105886
0.837598 0.586067 -1.105890
0.842724 0.595449 -1.106538
0.799966 0.532747 -1.105649
0.816519 0.538363 -1.105458
0.805406 0.569081 -1.104911
0.808187 0.580391 -1.105056
0.797367 0.595168 -1.105056
0.813186 0.557908 -1.104911
0.837041 0.585678 -1.105155
0.851380 0.531840 -1.105146
0.853089 0.545729 -1.105179
0.852892 0.562345 -1.105155
0.847680 0.570171 -1.105155
0.852652 0.512839 -1.105056
0.838168 0.536184 -1.105056
0.795029 0.476522 -1.104636
0.812068 0.573789 -1.104313
0.802067 0.495918 -1.104109
0.798874 0.532020 -1.104140
0.807912 0.548839 -1.103961
0.836974 0.503410 -1.103961
0.840877 0.530674 -1.104313
0.848335 0.484020 -1.103961
0.861125 0.370699 -1.107450
0.856045 0.401670 -1.107151
0.856329 0.439304 -1.107159
0.879222 0.451048 -1.107149
0.878558 0.471333 -1.107286
0.874220 0.381114 -1.106802
0.873517 0.423024 -1.106708
0.865582 0.439031 -1.106708
0.858226 0.374142 -1.105924
0.858226 0.374142 -1.105924
0.862966 0.442709 -1.105956
0.876873 0.434658 -1.106207
0.878630 0.450745 -1.106403
0.881043 0.363357 -1.106045
0.872923 0.422737 -1.105956
0.855235 0.419040 -1.105287
0.864427 0.376845 -1.104109
0.865029 0.418914 -1.105650
0.878944 0.466344 -1.105056
0.883059 0.397934 -1.104452
0.882192 0.422225 -1.105458
0.882146 0.442340 -1.105657
0.880101 0.446395 -1.105657
0.887922 0.366195 -1.104895
0.887336 0.409728 -1.104710
0.891340 0.426603 -1.107149
0.891692 0.398538 -1.103961
0.897719 0.365410 -1.105204
0.893196 0.378026 -1.105956
0.894726 0.413140 -1.104165
0.886489 0.454776 -1.106543
0.887376 0.434788 -1.107149
0.887479 0.469130 -1.105146
0.886759 0.470490 -1.105146
0.892683 0.442495 -1.106542
0.893283 0.442792 -1.107286
0.895513 0.433676 -1.105056
0.893768 0.458510 -1.105886
0.899152 0.450868 -1.107366
0.896896 0.429262 -1.104313
0.898921 0.466392 -1.105179
0.897486 0.469148 -1.105179
0.900137 0.385857 -1.106957
0.899705 0.405435 -1.105657
0.899705 0.405435 -1.105657
0.901903 0.381711 -1.106956
0.904002 0.394098 -1.104911
0.910228 0.406822 -1.107286
0.905863 0.413236 -1.105799
0.910119 0.421943 -1.104405
0.910765 0.420546 -1.104405
0.911681 0.375993 -1.104911
0.903475 0.437532 -1.105146
0.901452 0.441685 -1.105146
0.909414 0.445586 -1.105179
0.904381 0.458710 -1.106653
0.901659 0.462559 -1.105916
0.908013 0.471109 -1.106624
0.863686 0.498061 -1.107286
0.861385 0.502030 -1.107286
0.859066 0.505989 -1.107286
0.860807 0.501693 -1.106543
0.856358 0.507939 -1.105799
0.865538 0.509801 -1.105886
0.862509 0.533290 -1.106653
0.863565 0.530288 -1.105916
0.853819 0.527916 -1.105146
0.885372 0.494406 -1.106653
0.871358 0.502485 -1.107366
0.879282 0.485711 -1.105886
0.869036 0.506489 -1.107366
0.876121 0.510619 -1.106653
0.873762 0.514645 -1.106653
0.874753 0.531629 -1.107358
0.890330 0.481172 -1.104441
0.894591 0.474646 -1.105179
0.902021 0.483921 -1.107358
0.901430 0.497945 -1.104344
0.902624 0.498604 -1.105807
0.904973 0.478377 -1.107358
0.911045 0.481587 -1.105075
0.913944 0.499382 -1.107124
0.898590 0.507226 -1.106538
0.904576 0.510605 -1.104210
0.902812 0.515102 -1.104939
0.913559 0.515675 -1.105470
0.887491 0.526405 -1.106538
0.913366 0.517415 -1.106196
0.914096 0.532751 -1.105217
0.878231 0.543011 -1.107270
0.913422 0.538005 -1.107384
0.853658 0.546093 -1.105916
0.881204 0.535550 -1.105807
0.868917 0.537252 -1.105155
0.876491 0.541935 -1.105075
0.855850 0.540124 -1.104441
0.900482 0.556769 -1.105939
0.911809 0.554150 -1.104906
0.893001 0.571261 -1.107384
0.884452 0.583154 -1.106661
0.868347 0.572536 -1.105667
0.857706 0.571200 -1.105075
0.872575 0.581102 -1.104745
0.898233 0.574608 -1.104187
0.906986 0.580207 -1.105254
0.904892 0.584753 -1.105970
0.880608 0.586452 -1.105217
0.868663 0.588163 -1.105471
0.879047 0.591270 -1.106661
0.889817 0.592584 -1.107064
0.865605 0.593872 -1.106196
0.887504 0.591044 -1.104186
0.865037 0.593482 -1.105471
0.884775 0.595122 -1.104186
0.939859 0.382563 -1.107390
0.946742 0.365199 -1.107391
0.927694 0.409517 -1.106653
0.962177 0.396819 -1.106395
0.959724 0.402715 -1.106395
0.928640 0.382988 -1.105886
0.916926 0.388069 -1.105799
0.925183 0.413506 -1.105916
0.963783 0.366686 -1.105807
0.943793 0.369060 -1.105916
0.942084 0.373399 -1.105916
0.945057 0.389758 -1.105890
0.918026 0.430753 -1.106653
0.923328 0.441913 -1.107358
0.945544 0.436605 -1.107124
0.944873 0.438055 -1.107124
0.960965 0.424204 -1.106921
0.971128 0.423361 -1.106661
0.950950 0.446201 -1.106921
0.927227 0.454314 -1.107270
0.923006 0.462829 -1.107270
0.944783 0.457537 -1.106196
0.932515 0.462239 -1.106395
0.966436 0.457090 -1.107064
0.964322 0.461533 -1.107064
0.957859 0.474802 -1.107064
0.916233 0.495171 -1.107124
0.915291 0.533448 -1.106662
0.919933 0.580566 -1.106965
0.925237 0.572075 -1.106965
0.928176 0.585768 -1.107179
0.925635 0.496589 -1.106921
0.922568 0.520761 -1.106661
0.959848 0.492410 -1.107403
0.957572 0.496822 -1.107403
0.946490 0.536180 -1.106965
0.963158 0.526273 -1.107179
0.973642 0.567455 -1.107437
0.973026 0.567096 -1.106736
0.966605 0.579361 -1.107437
0.975041 0.584417 -1.107393
0.932446 0.558886 -1.106251
0.918869 0.507578 -1.106196
0.955188 0.539173 -1.106469
0.964962 0.500656 -1.106251
0.961813 0.584540 -1.106035
0.926717 0.511913 -1.105939
0.921167 0.521835 -1.105939
0.948575 0.568554 -1.105915
0.956088 0.575052 -1.106007
0.960859 0.487356 -1.105970
0.958033 0.552468 -1.105915
0.963091 0.482929 -1.105970
0.962242 0.545104 -1.105915
0.961922 0.525598 -1.105758
0.938190 0.449026 -1.105667
0.915172 0.585444 -1.105538
0.924045 0.571337 -1.105538
0.921577 0.375121 -1.105056
0.925653 0.388418 -1.105145
0.928019 0.382731 -1.105145
0.929770 0.378457 -1.105145
0.930796 0.398999 -1.105179
0.939729 0.377478 -1.105179
0.931732 0.576090 -1.105048
0.939596 0.563172 -1.105048
0.940034 0.581223 -1.105208
0.934280 0.365340 -1.104405
0.926044 0.362119 -1.104313
0.916879 0.384736 -1.104313
0.937720 0.403672 -1.104421
0.935853 0.407983 -1.104421
0.917664 0.506912 -1.104745
0.927126 0.546076 -1.104537
0.915185 0.565859 -1.104538
0.915332 0.491062 -1.104210
0.918774 0.541157 -1.104186
0.941572 0.558483 -1.104338
0.964340 0.500334 -1.105538
0.961644 0.419227 -1.105470
0.958505 0.588587 -1.105334
0.964679 0.478182 -1.105254
0.974389 0.561900 -1.105334
0.950098 0.465520 -1.105217
0.947974 0.380790 -1.105155
0.950233 0.398732 -1.105075
0.965947 0.453238 -1.104906
0.945044 0.590350 -1.104599
0.966009 0.495571 -1.104825
0.970363 0.547739 -1.104599
0.972873 0.543268 -1.104599
0.970559 0.464518 -1.104538
0.973283 0.522152 -1.104501
0.973283 0.522152 -1.104501
0.954718 0.409254 -1.104210
0.834202 0.599073 -1.111030
0.786299 0.603988 -1.110879
0.863487 0.604181 -1.110548
0.854505 0.615642 -1.109823
0.735456 0.638354 -1.110467
0.825173 0.639908 -1.110037
0.871181 0.625629 -1.110661
0.833929 0.628455 -1.110037
0.790762 0.595924 -1.109387
0.734213 0.596920 -1.107911
0.731518 0.640863 -1.108964
0.830337 0.602108 -1.109561
0.824761 0.609725 -1.109561
0.834758 0.611195 -1.109463
0.808640 0.615252 -1.108865
0.808582 0.631023 -1.109561
0.819934 0.629824 -1.108732
0.868594 0.642131 -1.108835
0.813186 0.606975 -1.107391
0.807565 0.614434 -1.107390
0.843838 0.596236 -1.108001
0.858448 0.606560 -1.107646
0.891855 0.611881 -1.110268
0.883843 0.606384 -1.109941
0.886624 0.602310 -1.109941
0.890706 0.629352 -1.109818
0.895816 0.608555 -1.111700
0.896171 0.606789 -1.110984
0.913854 0.596524 -1.110531
0.900465 0.617789 -1.111244
0.913105 0.632660 -1.110865
0.898677 0.634984 -1.110020
0.881781 0.639412 -1.108391
0.881781 0.639412 -1.108391
0.892637 0.641037 -1.108599
0.898153 0.616202 -1.108391
0.906777 0.622119 -1.109310
0.909630 0.617939 -1.109309
0.920851 0.601091 -1.109310
0.906089 0.640221 -1.109450
0.917057 0.641664 -1.109527
0.914258 0.627251 -1.108743
0.917504 0.621233 -1.108036
0.922338 0.632795 -1.108823
0.927420 0.611484 -1.110865
0.927379 0.627920 -1.110231
0.933350 0.621576 -1.111639
0.933008 0.602923 -1.110865
0.931612 0.639157 -1.110240
0.933363 0.634062 -1.108838
0.933236 0.615319 -1.108119
0.944410 0.622686 -1.111642
0.940347 0.626235 -1.110240
0.938860 0.606704 -1.108119
0.936863 0.630158 -1.109539
0.947947 0.631297 -1.109487
0.942484 0.638147 -1.108789
0.955432 0.602969 -1.110240
0.958197 0.598566 -1.110240
0.969317 0.599329 -1.110185
0.968708 0.598952 -1.109487
0.949311 0.607283 -1.107437
0.950513 0.608052 -1.108838
0.952518 0.621762 -1.108091
0.954412 0.641962 -1.110759
0.960774 0.627151 -1.107980
0.957878 0.631566 -1.107980
0.966066 0.624285 -1.110759
0.975437 0.623996 -1.108495
0.974375 0.629654 -1.110570
0.845941 0.607503 -1.107124
0.899820 0.611275 -1.106965
0.817487 0.616065 -1.107358
0.908828 0.615359 -1.107179
0.805534 0.601264 -1.106626
0.870801 0.603349 -1.106661
0.932050 0.614538 -1.106711
0.932199 0.596336 -1.106622
0.974652 0.602628 -1.106591
0.784348 0.629726 -1.107366
0.801146 0.637171 -1.107358
0.811783 0.623563 -1.107358
0.745485 0.635124 -1.106956
0.883575 0.634530 -1.106965
0.878561 0.624821 -1.106686
0.948450 0.625350 -1.106696
0.814104 0.619409 -1.106624
0.928671 0.637140 -1.106736
0.735886 0.632814 -1.106708
0.953763 0.635170 -1.106591
0.956676 0.630774 -1.106591
0.964920 0.636210 -1.106421
0.820505 0.640329 -1.106395
0.739476 0.601199 -1.106045
0.849826 0.616240 -1.106196
0.849826 0.616240 -1.106196
0.962904 0.601507 -1.105998
0.920476 0.613002 -1.105915
0.971258 0.606725 -1.105896
0.974040 0.602249 -1.105896
0.824819 0.603918 -1.105890
0.912349 0.607590 -1.105758
0.768565 0.618995 -1.105657
0.742052 0.638116 -1.106207
0.856178 0.639066 -1.106345
0.925143 0.641001 -1.106035
0.944966 0.629312 -1.105998
0.786308 0.639273 -1.105916
0.793127 0.630793 -1.105916
0.796021 0.627137 -1.105916
0.823517 0.620609 -1.105807
0.763795 0.624872 -1.105657
0.864357 0.626777 -1.105625
0.889367 0.640759 -1.105759
0.753162 0.623927 -1.105458
0.744944 0.632693 -1.104710
0.729039 0.638691 -1.105204
0.760356 0.641778 -1.105056
0.788526 0.621232 -1.105146
0.781810 0.629663 -1.105146
0.796617 0.639576 -1.105155
0.758059 0.602903 -1.104453
0.790847 0.617183 -1.104405
0.825271 0.615996 -1.104344
0.799740 0.620185 -1.104441
0.797834 0.622635 -1.104441
0.813793 0.631083 -1.104344
0.769593 0.629615 -1.104313
0.726581 0.640488 -1.104453
0.765715 0.634326 -1.104313
0.753102 0.635655 -1.104165
0.838656 0.614049 -1.104939
0.832420 0.621332 -1.104210
0.842457 0.622808 -1.104020
0.840686 0.627502 -1.105471
0.850771 0.628954 -1.105217
0.865789 0.640056 -1.105254
0.862204 0.613188 -1.105217
0.853657 0.625033 -1.105217
0.882184 0.617264 -1.105254
0.863794 0.626369 -1.104906
0.879833 0.603633 -1.104906
0.855637 0.604574 -1.104020
0.855964 0.620692 -1.104495
0.857434 0.633880 -1.104187
0.939249 0.600846 -1.105303
0.955786 0.611425 -1.105300
0.952962 0.615817 -1.105300
0.935878 0.604777 -1.104599
0.895571 0.596417 -1.104537
0.900432 0.623879 -1.105048
0.971785 0.621660 -1.104346
0.971363 0.640458 -1.104121
0.891851 0.617934 -1.104112
0.794199 0.664108 -1.110195
0.736651 0.649365 -1.109952
0.728492 0.672583 -1.110879
0.783837 0.690959 -1.110766
0.731376 0.681507 -1.110258
0.724415 0.675020 -1.109387
0.738142 0.646665 -1.109203
0.742775 0.654763 -1.109387
0.740109 0.642393 -1.107706
0.730397 0.680594 -1.108772
0.742673 0.679371 -1.108106
0.749225 0.685364 -1.108128
0.775077 0.683238 -1.108001
0.779113 0.693193 -1.108580
0.780810 0.677720 -1.108732
0.784922 0.687648 -1.109309
0.794340 0.676747 -1.109309
0.790698 0.679948 -1.108580
0.805190 0.667027 -1.111494
0.828308 0.667112 -1.110996
0.828791 0.665408 -1.110273
0.834337 0.657324 -1.109551
0.829187 0.647104 -1.108372
0.818626 0.644946 -1.107852
0.851366 0.647760 -1.107783
0.833251 0.656468 -1.108106
0.824350 0.682899 -1.108503
0.809447 0.670554 -1.107646
0.812212 0.685547 -1.110273
0.821198 0.686685 -1.108503
0.821731 0.687131 -1.109222
0.831139 0.675721 -1.109222
0.836894 0.671913 -1.111380
0.830789 0.694705 -1.111700
0.734166 0.647174 -1.106207
0.767116 0.647484 -1.105146
0.785389 0.642538 -1.107391
0.793731 0.645309 -1.106624
0.821580 0.653423 -1.106196
0.806511 0.655698 -1.104939
0.783185 0.654899 -1.104421
0.751479 0.668607 -1.107366
0.775098 0.666534 -1.105890
0.739291 0.665934 -1.105056
0.733744 0.658902 -1.104911
0.732238 0.659581 -1.104165
0.736749 0.667750 -1.104313
0.793570 0.657401 -1.105075
0.801497 0.663968 -1.106395
0.785443 0.667090 -1.105075
0.807327 0.668797 -1.104745
0.817019 0.658020 -1.105471
0.828597 0.659004 -1.105939
0.767370 0.676444 -1.106624
0.782886 0.673231 -1.107269
0.725795 0.682573 -1.106543
0.751370 0.681002 -1.106653
0.734655 0.672037 -1.105799
0.744297 0.674592 -1.105886
0.750869 0.680548 -1.105916
0.787465 0.694158 -1.106196
0.756952 0.686061 -1.105155
0.737231 0.693328 -1.104441
0.766219 0.688064 -1.104344
0.763045 0.691583 -1.104344
0.805297 0.673389 -1.106196
0.815824 0.675837 -1.106661
0.800109 0.679545 -1.106196
0.814759 0.674954 -1.105217
0.826374 0.676068 -1.105625
0.839580 0.674069 -1.105254
0.836511 0.680088 -1.106686
0.847158 0.680154 -1.105538
0.821140 0.680240 -1.104186
0.834960 0.683093 -1.107403
0.823317 0.694920 -1.105970
0.794358 0.683096 -1.104020
0.898649 0.670767 -1.111639
0.904785 0.662468 -1.111639
0.882943 0.659043 -1.111440
0.891873 0.678580 -1.110935
0.896536 0.688665 -1.110941
0.931755 0.675650 -1.111453
0.928636 0.679931 -1.111453
0.922339 0.688449 -1.111453
0.949056 0.651125 -1.111453
0.973594 0.687919 -1.111657
0.944620 0.691635 -1.111004
0.947793 0.687280 -1.111004
0.954183 0.661122 -1.111261
0.880962 0.676702 -1.110865
0.959630 0.651906 -1.110570
0.950539 0.665092 -1.110570
0.970500 0.672427 -1.110681
0.939181 0.681035 -1.110570
0.899128 0.684100 -1.110240
0.872037 0.687024 -1.110158
0.889654 0.664053 -1.110158
0.886589 0.668140 -1.110158
0.908687 0.654678 -1.110231
0.922699 0.651958 -1.110240
0.925670 0.664760 -1.110185
0.936762 0.666212 -1.110064
0.907913 0.671197 -1.109539
0.879180 0.692653 -1.109527
0.878214 0.661829 -1.109310
0.875159 0.665863 -1.109309
0.879394 0.643877 -1.109104
0.949768 0.682065 -1.109627
0.964988 0.642645 -1.109878
0.963597 0.661102 -1.108939
0.963080 0.680490 -1.109311
0.957832 0.687857 -1.109311
0.975442 0.662648 -1.109311
0.874599 0.665437 -1.108599
0.875858 0.647501 -1.108391
0.905524 0.656629 -1.108823
0.910951 0.647856 -1.108119
0.918951 0.653545 -1.108137
0.920862 0.667751 -1.108091
0.938551 0.643918 -1.108789
0.946683 0.649498 -1.108675
0.923936 0.646478 -1.108137
0.939508 0.676884 -1.108495
0.940545 0.675442 -1.108495
0.953786 0.673923 -1.108251
0.862275 0.643617 -1.104538
0.886827 0.643072 -1.105049
0.897132 0.644265 -1.104501
0.882569 0.652462 -1.107179
0.898437 0.647294 -1.107329
0.895875 0.649632 -1.106622
0.903799 0.655379 -1.106711
0.911165 0.660719 -1.106035
0.897729 0.663669 -1.106711
0.862124 0.662232 -1.106251
0.909265 0.665748 -1.107437
0.875604 0.679016 -1.108036
0.873516 0.681699 -1.108036
0.865257 0.675253 -1.107179
0.896857 0.682372 -1.107437
0.902528 0.673662 -1.106736
0.877598 0.674118 -1.106622
0.865099 0.670869 -1.104338
0.861265 0.691480 -1.104501
0.864992 0.687949 -1.105208
0.914889 0.669866 -1.104602
0.884235 0.679216 -1.105303
0.884798 0.679648 -1.106007
0.968437 0.651395 -1.107562
0.949459 0.642870 -1.107285
0.961803 0.659871 -1.106874
0.941910 0.652618 -1.106591
0.973442 0.659109 -1.105885
0.958424 0.644660 -1.105729
0.969010 0.645324 -1.104809
0.932045 0.645783 -1.104602
0.955844 0.647193 -1.105038
0.929063 0.650065 -1.104602
0.922325 0.664504 -1.107393
0.930550 0.687933 -1.107804
0.931349 0.668838 -1.107285
0.943055 0.670688 -1.107804
0.959352 0.664703 -1.107562
0.945108 0.667791 -1.107804
0.969980 0.665481 -1.106570
0.927097 0.672272 -1.105896
0.925638 0.690912 -1.105729
0.928571 0.669004 -1.105201
0.949350 0.675165 -1.105497
0.968816 0.684543 -1.106201
0.957426 0.680909 -1.105200
0.962349 0.691100 -1.104837
0.893042 0.726049 -1.111453
0.772741 0.744803 -1.111380
0.821390 0.719597 -1.111244
0.870580 0.721197 -1.110941
0.888126 0.715288 -1.110882
0.896919 0.720105 -1.110759
0.871433 0.735533 -1.110882
0.852793 0.772927 -1.111453
0.844946 0.765814 -1.110882
0.844946 0.765814 -1.110882
0.868009 0.786718 -1.111693
0.886968 0.796496 -1.111657
0.890832 0.853368 -1.110757
0.884261 0.860176 -1.110757
0.805560 0.750632 -1.110730
0.877699 0.773700 -1.110316
0.874129 0.777731 -1.110316
0.874812 0.807673 -1.110293
0.878920 0.818990 -1.110518
0.888002 0.871804 -1.110690
0.893892 0.896639 -1.110338
0.777423 0.737898 -1.109941
0.824856 0.743009 -1.110158
0.815901 0.695115 -1.109941
0.863271 0.804408 -1.109996
0.724706 0.698505 -1.108106
0.760369 0.739659 -1.108106
0.740619 0.720446 -1.108001
0.779397 0.719581 -1.108106
0.776583 0.723631 -1.108829
0.780304 0.733836 -1.109222
0.788497 0.695068 -1.107647
0.811113 0.697504 -1.107783
0.827147 0.724641 -1.109310
0.810650 0.755375 -1.108036
0.814637 0.752116 -1.108743
0.861917 0.714020 -1.109527
0.866949 0.738606 -1.109487
0.873710 0.730596 -1.109487
0.886897 0.698732 -1.109539
0.888105 0.713028 -1.109487
0.879872 0.706418 -1.108838
0.890816 0.708488 -1.108789
0.893558 0.832631 -1.109405
0.877389 0.787895 -1.109311
0.876179 0.789240 -1.109311
0.874215 0.837450 -1.109319
0.886992 0.777069 -1.109311
0.897003 0.812996 -1.109319
0.858519 0.778116 -1.109187
0.854223 0.721007 -1.108119
0.874872 0.695807 -1.108119
0.882601 0.717561 -1.108091
0.872611 0.729677 -1.108091
0.897017 0.859293 -1.108693
0.858067 0.792213 -1.108251
0.878432 0.769570 -1.108251
0.888639 0.835720 -1.108060
0.899969 0.902734 -1.108084
0.896478 0.858777 -1.108027
0.864565 0.769222 -1.107804
0.864784 0.783795 -1.107562
0.893374 0.782660 -1.107565
0.942011 0.696405 -1.111693
0.935833 0.737286 -1.110975
0.939216 0.732972 -1.110975
0.940261 0.798579 -1.110757
0.912262 0.912262 -1.111650
0.906613 0.821706 -1.111422
0.904021 0.904020 -1.111364
0.920349 0.806292 -1.111422
0.936588 0.820519 -1.111356
0.934506 0.839186 -1.111214
0.935189 0.887643 -1.110997
0.922281 0.851499 -1.110551
0.935633 0.753550 -1.110518
0.942020 0.845933 -1.110338
0.916894 0.759564 -1.110293
0.941118 0.779631 -1.110077
0.930226 0.874830 -1.110052
0.913778 0.843649 -1.110025
0.909895 0.863634 -1.109888
0.904070 0.725846 -1.109878
0.936215 0.751654 -1.109839
0.946171 0.857560 -1.110052
0.946798 0.874134 -1.110344
0.947401 0.822316 -1.109889
0.948140 0.721391 -1.110975
0.950562 0.787455 -1.111426
0.952679 0.750558 -1.111346
0.951450 0.717020 -1.110975
0.949766 0.837228 -1.110338
0.952109 0.952109 -1.109957
0.954646 0.798274 -1.110690
0.955377 0.882055 -1.110556
0.954961 0.745259 -1.109995
0.953568 0.950647 -1.109956
0.958009 0.708233 -1.110975
0.959339 0.861486 -1.110997
0.958309 0.793873 -1.110690
0.967221 0.696851 -1.111657
0.961818 0.738811 -1.111346
0.962951 0.805219 -1.110551
0.960994 0.926250 -1.110066
0.965715 0.939412 -1.110593
0.967497 0.885032 -1.110041
0.974557 0.792321 -1.111214
0.969017 0.763430 -1.110757
0.972892 0.931977 -1.110592
0.974069 0.720105 -1.109995
0.972593 0.739995 -1.110077
0.933823 0.703736 -1.109627
0.918875 0.705825 -1.109187
0.943651 0.724855 -1.109611
0.945009 0.705371 -1.109311
0.945923 0.738206 -1.109160
0.956660 0.741874 -1.109319
0.968590 0.744012 -1.109405
0.962861 0.732591 -1.108643
0.924009 0.765458 -1.109160
0.906390 0.769812 -1.108929
0.930916 0.790642 -1.109405
0.917337 0.788850 -1.108643
0.918122 0.804341 -1.108733
0.926783 0.811929 -1.109419
0.944006 0.757910 -1.109319
0.941837 0.809918 -1.108693
0.947105 0.770003 -1.108733
0.951215 0.766100 -1.109405
0.955605 0.811611 -1.109226
0.975745 0.768730 -1.108693
0.921539 0.701151 -1.108495
0.938514 0.746424 -1.108482
0.971613 0.772748 -1.108027
0.975159 0.768269 -1.108027
0.901972 0.790193 -1.108482
0.935817 0.782530 -1.108060
0.924925 0.795374 -1.108060
0.929387 0.806681 -1.108080
0.946221 0.803641 -1.108027
0.901249 0.710039 -1.107980
0.950286 0.695783 -1.107941
0.947074 0.700148 -1.107941
0.925151 0.728870 -1.107941
0.941911 0.723519 -1.107565
0.958895 0.736565 -1.107968
0.929569 0.739309 -1.107565
0.932961 0.735023 -1.107565
0.904968 0.820215 -1.109405
0.916749 0.823241 -1.109419
0.920117 0.865323 -1.107701
0.918550 0.869175 -1.109020
0.931268 0.820922 -1.108027
0.925739 0.862617 -1.109679
0.933085 0.853553 -1.109020
0.921590 0.882833 -1.109396
0.910687 0.894076 -1.109396
0.929453 0.890365 -1.109039
0.921511 0.896412 -1.107733
0.951982 0.917564 -1.109451
0.950489 0.902165 -1.109395
0.954793 0.914639 -1.109451
0.940504 0.829063 -1.109226
0.958431 0.961376 -1.109132
0.942992 0.908899 -1.108749
0.941101 0.860886 -1.108740
0.937129 0.865208 -1.108740
0.953789 0.812590 -1.108563
0.945225 0.905474 -1.108102
0.966228 0.969197 -1.108233
0.967803 0.915781 -1.108148
0.939380 0.828073 -1.107901
0.973888 0.890878 -1.107523
0.945931 0.937264 -1.107508
0.730818 0.700084 -1.104441
0.780530 0.700916 -1.105471
0.742045 0.702158 -1.105155
0.737232 0.706228 -1.104421
0.726396 0.706611 -1.105916
0.771791 0.712559 -1.106921
0.729964 0.716649 -1.106624
0.735551 0.708958 -1.105155
0.766489 0.714226 -1.104020
0.774054 0.721274 -1.105217
0.750596 0.719030 -1.104939
0.771734 0.725776 -1.106661
0.765021 0.732849 -1.106661
0.781640 0.728344 -1.106345
0.751962 0.731481 -1.105471
0.737871 0.731110 -1.104210
0.781132 0.727870 -1.105625
0.780422 0.740744 -1.104538
0.787655 0.709499 -1.107384
0.810912 0.710417 -1.106686
0.840360 0.702708 -1.105048
0.809337 0.709038 -1.104538
0.790077 0.716084 -1.104187
0.784984 0.724739 -1.106345
0.794954 0.727196 -1.105970
0.791087 0.730373 -1.105254
0.830648 0.745921 -1.106711
0.785347 0.738579 -1.106686
0.812716 0.736603 -1.106469
0.812559 0.750197 -1.105915
0.820793 0.757799 -1.107415
0.834704 0.770643 -1.106696
0.812194 0.736130 -1.105759
0.787717 0.734006 -1.105254
0.801093 0.732812 -1.104825
0.821786 0.737963 -1.104501
0.836656 0.765343 -1.104602
0.840358 0.775863 -1.104507
0.842902 0.718119 -1.107329
0.849729 0.784515 -1.107112
0.864516 0.722908 -1.107437
0.858946 0.729517 -1.107437
0.860479 0.772709 -1.107112
0.864823 0.798450 -1.107256
0.852213 0.751234 -1.106696
0.892942 0.703494 -1.107393
0.887200 0.741876 -1.107112
0.897141 0.761957 -1.107256
0.879373 0.782397 -1.107256
0.889027 0.755066 -1.106874
0.898226 0.744099 -1.106874
0.884655 0.696966 -1.106736
0.879982 0.812446 -1.107124
0.884075 0.823794 -1.107292
0.897080 0.872646 -1.107238
0.884995 0.837424 -1.106716
0.884999 0.853003 -1.106742
0.899339 0.853615 -1.106695
0.856109 0.761698 -1.106591
0.868839 0.747144 -1.106591
0.871595 0.789968 -1.106570
0.857972 0.834603 -1.106445
0.864348 0.827998 -1.106445
0.849154 0.798586 -1.106186
0.860090 0.725959 -1.106035
0.876717 0.845020 -1.106043
0.858104 0.697644 -1.105915
0.868988 0.837570 -1.105941
0.871055 0.789478 -1.105885
0.882444 0.731025 -1.106591
0.879784 0.749542 -1.106421
0.886252 0.788517 -1.106201
0.897891 0.791499 -1.106445
0.889872 0.784430 -1.106201
0.894236 0.747760 -1.106186
0.895040 0.698496 -1.105998
0.879443 0.811948 -1.106445
0.886773 0.818716 -1.105941
0.882996 0.822788 -1.105941
0.894661 0.825999 -1.106043
0.894859 0.841569 -1.106073
0.898722 0.837442 -1.106073
0.885774 0.883060 -1.106575
0.899751 0.899751 -1.106116
0.842385 0.715452 -1.105208
0.848734 0.723088 -1.105303
0.851102 0.705061 -1.105208
0.860282 0.739786 -1.105300
0.844524 0.786940 -1.105038
0.866186 0.717557 -1.105334
0.880378 0.715753 -1.105300
0.877967 0.734156 -1.105201
0.883704 0.774189 -1.105200
0.866223 0.777868 -1.104809
0.865029 0.779196 -1.104809
0.872200 0.709104 -1.104633
0.879764 0.699698 -1.104633
0.849816 0.765492 -1.104507
0.871212 0.756186 -1.104346
0.894205 0.776144 -1.104155
0.858492 0.785318 -1.104120
0.897340 0.791014 -1.105766
0.866876 0.792987 -1.105200
0.885790 0.802833 -1.105088
0.863818 0.827490 -1.105766
0.890309 0.829603 -1.105371
0.872289 0.848530 -1.105371
0.872289 0.848530 -1.105371
0.851759 0.793681 -1.104809
0.852527 0.821705 -1.104155
0.855044 0.819086 -1.104155
0.878126 0.825833 -1.104590
0.874665 0.874665 -1.104032
0.884183 0.881474 -1.104587
0.886657 0.862507 -1.104032
0.966829 0.742659 -1.107388
0.975366 0.749217 -1.107411
0.906100 0.702665 -1.107285
0.949205 0.747821 -1.107292
0.911726 0.711518 -1.107112
0.953158 0.725209 -1.107124
0.929306 0.755532 -1.107124
0.944648 0.718734 -1.106883
0.934727 0.697696 -1.106874
0.969005 0.756219 -1.106742
0.969005 0.756219 -1.106742
0.910584 0.761430 -1.106883
0.935249 0.782055 -1.107388
0.943508 0.788961 -1.107411
0.972106 0.805302 -1.107041
0.935641 0.797129 -1.106742
0.924547 0.809970 -1.106742
0.940706 0.808945 -1.107361
0.964653 0.814214 -1.107042
0.969734 0.826175 -1.107428
0.949502 0.831833 -1.107042
0.965349 0.830137 -1.106771
0.903113 0.833802 -1.106742
0.957668 0.838986 -1.106771
0.927490 0.856308 -1.107042
0.939994 0.875900 -1.107080
0.943375 0.855026 -1.106771
0.912628 0.887770 -1.106772
0.958161 0.906657 -1.106880
0.961171 0.887404 -1.107457
0.962950 0.936722 -1.107412
0.969549 0.928775 -1.106776
0.954288 0.945545 -1.107412
0.913984 0.805686 -1.106716
0.907157 0.845302 -1.106695
0.918979 0.848450 -1.106575
0.929998 0.770420 -1.106617
0.926443 0.774691 -1.106617
0.937050 0.761827 -1.106617
0.942674 0.703628 -1.106570
0.921153 0.714338 -1.106186
0.928186 0.919682 -1.106164
0.912725 0.822159 -1.106073
0.929431 0.769949 -1.105941
0.914517 0.852160 -1.105913
0.962816 0.746647 -1.106716
0.945382 0.768602 -1.106716
0.945863 0.733500 -1.106445
0.949228 0.729140 -1.106445
0.963186 0.797912 -1.106575
0.947969 0.883332 -1.106659
0.971995 0.856823 -1.106659
0.970845 0.944402 -1.106602
0.961577 0.816683 -1.106382
0.949137 0.931824 -1.106229
0.950289 0.947378 -1.106140
0.953415 0.927446 -1.106230
0.957528 0.940062 -1.106140
0.968167 0.877495 -1.106164
0.968652 0.894311 -1.106238
0.968928 0.911227 -1.106229
0.973253 0.923772 -1.106140
0.974669 0.922278 -1.106140
0.902806 0.704556 -1.105896
0.905302 0.749961 -1.105885
0.915077 0.720934 -1.105497
0.919874 0.747864 -1.105519
0.931715 0.715687 -1.105200
0.943029 0.735947 -1.105766
0.956538 0.700360 -1.105519
0.973598 0.747859 -1.105404
0.917097 0.766876 -1.105087
0.903381 0.784108 -1.105766
0.967236 0.808802 -1.105723
0.909161 0.808899 -1.105371
0.912874 0.804707 -1.105371
0.906048 0.908832 -1.105775
0.923990 0.890584 -1.105775
0.913944 0.867478 -1.105064
0.922359 0.875465 -1.105459
0.955978 0.822078 -1.105723
0.968089 0.893792 -1.105595
0.972548 0.906235 -1.105590
0.942345 0.870023 -1.105122
0.946339 0.865677 -1.105122
0.959179 0.817182 -1.105064
0.934027 0.728922 -1.104837
0.972613 0.712130 -1.104590
0.914435 0.736478 -1.104515
0.967213 0.701362 -1.104409
0.924710 0.756519 -1.104409
0.927027 0.753679 -1.104409
0.960259 0.763718 -1.104735
0.965138 0.774876 -1.104697
0.917590 0.781751 -1.104590
0.928812 0.783963 -1.104026
0.963367 0.775887 -1.104032
0.968972 0.751421 -1.104065
0.923152 0.873530 -1.104803
0.967036 0.876470 -1.104872
0.930272 0.799973 -1.104734
0.945831 0.798328 -1.104698
0.954376 0.873030 -1.104711
0.904747 0.827631 -1.104065
0.933488 0.894231 -1.104061
0.941579 0.802188 -1.104032
0.972332 0.851833 -1.104062
0.727458 0.532632 -1.103509
0.723933 0.693488 -1.103665
0.729200 0.648784 -1.103212
0.730324 0.501058 -1.103536
0.736341 0.520282 -1.103509
0.732968 0.618661 -1.103385
0.729949 0.413511 -1.103259
0.729107 0.429443 -1.102761
0.724331 0.452475 -1.103012
0.735883 0.433435 -1.103012
0.734030 0.508585 -1.102770
0.727694 0.701385 -1.102967
0.726746 0.624954 -1.102630
0.734654 0.732403 -1.102754
0.739269 0.396607 -1.103259
0.748644 0.427141 -1.103215
0.741099 0.513483 -1.103509
0.745537 0.491562 -1.102770
0.747141 0.517669 -1.102651
0.739209 0.557074 -1.103104
0.750641 0.637532 -1.103419
0.747114 0.733487 -1.103294
0.748924 0.409215 -1.102221
0.728988 0.365541 -1.102088
0.729355 0.698682 -1.102229
0.738998 0.701426 -1.102218
0.732886 0.630234 -1.102197
0.726141 0.689223 -1.102185
0.745447 0.707547 -1.102150
0.724655 0.507041 -1.101977
0.733711 0.521805 -1.101961
0.729238 0.554840 -1.101750
0.741825 0.524157 -1.101880
0.724747 0.434397 -1.101174
0.724143 0.506682 -1.101197
0.727396 0.542941 -1.101108
0.730129 0.361919 -1.101284
0.730651 0.511236 -1.101216
0.737173 0.515800 -1.101186
0.732916 0.719547 -1.101419
0.734765 0.665952 -1.101341
0.735272 0.704350 -1.101484
0.746036 0.705934 -1.101419
0.724108 0.638308 -1.100693
0.728260 0.442599 -1.100640
0.729596 0.361654 -1.100480
0.729468 0.525557 -1.100412
0.729497 0.425164 -1.100381
0.730641 0.467398 -1.100229
0.733802 0.547722 -1.100981
0.732924 0.450065 -1.100851
0.738245 0.361718 -1.100923
0.731092 0.693923 -1.100018
0.736750 0.529089 -1.100337
0.724323 0.447849 -1.099849
0.727617 0.619901 -1.099612
0.726599 0.607582 -1.099227
0.726599 0.607582 -1.099227
0.728067 0.618359 -1.098857
0.723718 0.662032 -1.098942
0.734599 0.474708 -1.099564
0.735754 0.428810 -1.099849
0.735421 0.529846 -1.099565
0.731456 0.718114 -1.099225
0.738034 0.711351 -1.099224
0.741323 0.371726 -1.100520
0.738783 0.725307 -1.100569
0.744041 0.399167 -1.100381
0.743187 0.520008 -1.100337
0.742620 0.575889 -1.100307
0.745262 0.572466 -1.100307
0.745150 0.731558 -1.100393
0.748284 0.391154 -1.100381
0.748993 0.422783 -1.100851
0.749742 0.538419 -1.100040
0.741901 0.534515 -1.099444
0.745843 0.361194 -1.099721
0.748940 0.388577 -1.099588
0.747425 0.454246 -1.099564
0.750076 0.494554 -1.099638
0.748833 0.436433 -1.099444
0.742021 0.432463 -1.099275
0.742332 0.614955 -1.099190
0.745301 0.360932 -1.098923
0.745970 0.425615 -1.099275
0.753423 0.364865 -1.100871
0.755866 0.379019 -1.101968
0.757056 0.375266 -1.101174
