# .PCD v0.7 - Point Cloud Data file format
VERSION 0.7
FIELDS x y z intensities index
SIZE 4 4 4 4 4
TYPE F F F F F
COUNT 1 1 1 1 1
WIDTH 1097
HEIGHT 1
VIEWPOINT 0 0 0 1 0 0 0
POINTS 1097
DATA ascii
0.72802395 0.7376281 -1.1179523 3519.5715 586
0.77506179 0.73657453 -1.116771 3488.6667 579.5
0.82568908 0.73796451 -1.1193981 3466.5715 573
0.87708074 0.73463804 -1.1147465 3428.8572 566
0.92911118 0.73433876 -1.1147777 3425 559.5
0.9784857 0.73380727 -1.1144247 3382 553.5
1.0271304 0.73494858 -1.116649 3356 548
1.0727395 0.732449 -1.1132201 3358.6667 542.5
1.1230541 0.73242551 -1.1136607 3324 537
1.1773719 0.73392332 -1.1164895 3275.6667 531.5
1.229471 0.73244476 -1.1146995 3247 526
1.2739459 0.73145556 -1.113593 3252.5 521.5
1.3230108 0.73245001 -1.1155943 3220.2 517
1.373588 0.72995263 -1.112216 3206.2 512
1.4328126 0.73129934 -1.1148579 3172 507
1.4800382 0.73122406 -1.1151894 3146 503
1.5245405 0.72882134 -1.1118995 3145.2 499
1.5818189 0.73220062 -1.1176633 3136.3335 495
1.6197199 0.72814494 -1.111757 3094.75 491.5
1.6716931 0.7269721 -1.1104378 3085.75 487.5
1.7034529 0.72547066 -1.1084195 3089 485
2.560432 0.7294575 -1.122704 2677 440
3.2105999 0.71497512 -1.1064955 2312 417
3.5187619 0.72084028 -1.1184782 2266 410
0.38502654 0.78866237 -1.1180331 3581.6001 638
0.42699605 0.78847224 -1.1181382 3559.375 631.5
0.47888875 0.7872743 -1.1168711 3533.875 623.5
0.52940726 0.7883603 -1.1189057 3571.1431 616
0.5772993 0.78868395 -1.11981 3539.0002 609
0.62517452 0.78749543 -1.1185201 3522.2859 602
0.67349708 0.78553665 -1.1161168 3518.7144 595
0.7235595 0.78449005 -1.1150527 3480.1431 588
0.7730788 0.78592765 -1.1175882 3463.5 581.5
0.82151383 0.78437525 -1.1157752 3468.5715 575
0.87217677 0.78389996 -1.1155457 3426.3335 568.5
0.92358732 0.78255445 -1.1140602 3406.5715 562
0.97568482 0.78039449 -1.1113991 3378.3335 555.5
1.0257989 0.78275436 -1.1152782 3336 550
1.0753673 0.78308773 -1.1162121 3322.3335 544.5
1.1251856 0.7823 -1.1155213 3296.6001 539
1.1756272 0.78067374 -1.1136197 3261.5 533.5
1.2244972 0.78033185 -1.1135672 3256.5 528.5
1.2775626 0.78164983 -1.1159614 3224.5 523.5
1.3312982 0.7820521 -1.1170331 3205.25 518.5
1.3711114 0.77939999 -1.1135463 3180.75 514.5
1.420722 0.77853268 -1.1127383 3175 510
1.4798349 0.77863926 -1.1134297 3155.6001 505
1.5287021 0.77858257 -1.113791 3131 501
1.5681562 0.77594161 -1.1103171 3105.75 497.5
1.6252291 0.77842546 -1.1144395 3084.25 493.5
1.676338 0.77675897 -1.1124854 3083.75 489.5
1.7243398 0.77610445 -1.1119717 3025.6667 486
1.778874 0.77419037 -1.1096894 3001.8 482
3.3326211 0.75948322 -1.1024563 1713 415
0.38693333 0.83882606 -1.1162853 3547.75 638.5
0.42586425 0.83731455 -1.1145632 3541.375 632.5
0.47579625 0.83739871 -1.1151131 3499.5715 625
0.52367228 0.83841401 -1.1169147 3494.8572 618
0.57599348 0.83940065 -1.1187162 3486.625 610.5
0.62366623 0.83652627 -1.1152115 3476.1667 603.5
0.67060149 0.83692843 -1.1161691 3484.7144 597
0.72234666 0.83725095 -1.1170597 3465.4287 590
0.77428651 0.83603394 -1.1158526 3439.4287 583
0.82063562 0.83587992 -1.1160464 3443.6001 577
0.86935204 0.83706623 -1.1180886 3421.1431 571
0.92574155 0.83589119 -1.1169777 3384.1431 564
0.97252303 0.83195537 -1.1120176 3346.4001 558
1.0218344 0.83338618 -1.1143987 3349.5 552.5
1.0760543 0.83368796 -1.1152825 3303.5 546.5
1.1244687 0.83134937 -1.1125153 3298.6001 541
1.1788633 0.83258402 -1.1146728 3269.8335 535.5
1.2297946 0.83347714 -1.1163346 3234 530.5
1.2714672 0.83010739 -1.1121023 3212 526
1.3252226 0.83061761 -1.1132663 3189.8 521
1.3812027 0.83117115 -1.114509 3156 516
1.4239645 0.82933092 -1.1123719 3143.3335 512
1.4692204 0.82823545 -1.1112725 3127.2 508
1.5277742 0.83040404 -1.1147399 3119.25 503.5
1.5726488 0.8270613 -1.1105723 3088.75 499.5
1.6299084 0.82981694 -1.1148291 3082.75 495.5
1.6695781 0.82553005 -1.1093286 3052.6667 492
1.7227962 0.8277446 -1.1128124 2996.5 488.5
1.7731009 0.82747924 -1.1128887 2981.6667 485
1.8231905 0.82619798 -1.1115777 2974.5 481.5
1.8806087 0.82377172 -1.1087693 2957.75 477.5
3.2247682 0.81912947 -1.1141502 1993.5 420.5
0.39036053 0.89374721 -1.119637 3490.6667 639
0.42706445 0.89285696 -1.118801 3502.75 633.5
0.47762433 0.89153498 -1.1175263 3484.1431 626
0.52513546 0.88979393 -1.1156875 3455.5715 619
0.57813323 0.89038533 -1.1168921 3471.625 611.5
0.62765115 0.88920844 -1.1157954 3461.8335 604.5
0.67397457 0.88727146 -1.1136949 3433.7144 598
0.72569579 0.88644052 -1.1130612 3437.4287 591
0.7772069 0.88884228 -1.1165794 3415.5 584.5
0.82868844 0.88919783 -1.1174682 3406.5715 578
0.87959474 0.88719195 -1.1153178 3393.8335 571.5
0.92915392 0.88675106 -1.115167 3351.1667 565.5
0.98004043 0.88621044 -1.1148993 3330.6667 559.5
1.0297045 0.88290566 -1.1110691 3294.8335 553.5
1.0772629 0.88496554 -1.1141151 3295.75 548.5
1.1223761 0.88344783 -1.1125432 3292 543.5
1.1758053 0.883762 -1.1133951 3253.8 538
1.2248529 0.88308686 -1.1129391 3198.2 533
1.2764401 0.88300747 -1.11327 3185.8 528
1.3278507 0.8815304 -1.1118031 3164.6001 523
1.3760401 0.88050807 -1.1108937 3153.5 518.5
1.4280536 0.88087046 -1.1117958 3122.6001 514
1.4778585 0.8785947 -1.1092893 3111.75 509.5
1.5273097 0.87895864 -1.1101716 3102.25 505.5
1.5788361 0.87947351 -1.1112655 3099.75 501.5
1.6207895 0.87718678 -1.1086791 3048.6667 498
1.6737316 0.88045287 -1.1133201 3028.25 494.5
1.7167246 0.87713051 -1.1094116 3022.3335 491
1.7743218 0.87699282 -1.1097178 2998 487
1.8284974 0.87786937 -1.1112988 2979.5 483.5
1.8692462 0.87487787 -1.1077965 2954.25 480.5
1.918735 0.87562579 -1.1091727 2896 477.5
1.9726596 0.87768126 -1.1122664 2903.5 474.5
2.0075464 0.86998487 -1.1026692 2886.5 471.5
2.2762282 0.86327803 -1.1307249 2739 458.5
2.3281162 0.87177771 -1.1076623 2784 455
2.3815455 0.86723691 -1.1022756 2727 452
2.403908 0.86729008 -1.1025316 2656 451
0.39535624 0.94446295 -1.113705 3469 639
0.42563111 0.94434881 -1.1138116 3448.7144 634.57147
0.4827652 0.94302058 -1.1126658 3451.5 626.25
0.5334121 0.94224024 -1.1121308 3442.2 619
0.57621753 0.94504893 -1.1158779 3416.2 613.20001
0.6314193 0.94320768 -1.1140951 3424 605.5
0.67589331 0.94286549 -1.1140406 3404.3335 599.5
0.72579646 0.94367933 -1.1154298 3418.5715 593
0.7755782 0.942469 -1.114367 3412.1667 586.5
0.8269996 0.94196659 -1.1141748 3363.1431 580
0.88151181 0.94047987 -1.1128156 3356 573.20001
0.93054765 0.94164515 -1.1146233 3335.6667 567.5
0.97752106 0.94091696 -1.1141217 3309.4001 562
1.0254102 0.93977737 -1.1131294 3292.8335 556.5
1.0770289 0.94101554 -1.1150463 3279.4001 551
1.1236819 0.94050473 -1.1148052 3252.2 546
1.1699603 0.93842 -1.1126553 3248.4001 541
1.2201998 0.93853301 -1.1131986 3200.6001 536
1.2723833 0.93891954 -1.1140889 3171.8 531
1.319643 0.93824595 -1.1136557 3166.75 526.5
1.3753366 0.93857527 -1.1145051 3129.1667 521.5
1.4312294 0.93751675 -1.1136755 3133.5 516.5
1.4745842 0.93464583 -1.11055 3107.5 512.5
1.5275649 0.93324661 -1.1092845 3081.8 508
1.5868694 0.93466014 -1.1114759 3046.25 503.5
1.6253341 0.92990845 -1.1060336 3048.3335 500
1.6791203 0.93384874 -1.1112399 3012.75 496.5
1.7227499 0.93063653 -1.1077032 2998.6667 493
1.777319 0.93294281 -1.1109375 2975.75 489.5
1.8167207 0.92994243 -1.1076232 2945.5 486.5
1.8684477 0.93297678 -1.1117159 2941.5 483.5
1.9186299 0.93003714 -1.1085625 2927 480
1.976197 0.92996669 -1.108943 2877.5 476.5
2.0255761 0.92902589 -1.1082032 2830.5 473.5
2.0769958 0.92826086 -1.1076931 2850.75 470.5
2.1259303 0.92550886 -1.1047566 2834 467.5
2.1756561 0.93109721 -1.1119257 2821 465.5
2.4298277 0.92911381 -1.1115806 2689 453
2.4648914 0.93182993 -1.1151531 2702.75 451.75
2.5269442 0.92169446 -1.1033826 2677 448
2.5874734 0.92631745 -1.1094701 2652 446
2.6221256 0.92524898 -1.1084569 2640 444.5
2.6784384 0.93190622 -1.1169733 2208 443
0.39077395 0.9521507 -1.1229767 3473 640
0.43394271 0.97471476 -1.1156852 3424 634
0.47382113 0.9650265 -1.121721 3457 628.25
0.51810384 0.9676677 -1.1194235 3437.3335 622
0.56740582 0.98192441 -1.1138275 3393.6667 615.33337
0.61001122 0.97576725 -1.1183231 3402.75 609.5
0.6844179 0.99819326 -1.1110601 3349 600
0.71893096 0.99779522 -1.1108756 3389.5 595.5
0.76216054 0.99783272 -1.1112564 3349.3335 590
0.81819153 0.99738771 -1.1111864 3351 583
0.87236202 0.98120725 -1.1154287 3310.3335 576
0.92255127 0.99704289 -1.1116089 3328.25 570.5
0.97566676 0.99781096 -1.1129012 3286.25 564.5
1.0327163 0.99615967 -1.1114619 3261 558
1.0826505 0.99654883 -1.1122968 3251.3335 552.66669
1.1261817 0.99553919 -1.1114845 3227.2 548
1.1692355 0.99456459 -1.1107082 3211 543.5
1.2314289 0.99597311 -1.1128029 3203.5 537.5
1.2881182 0.99507129 -1.1122165 3167.3335 532
1.3226116 0.99220514 -1.1092137 3141 528.5
1.368814 0.99374878 -1.1113375 3106 524.5
1.4228266 0.99568748 -1.1139735 3092.8 520
1.4778882 0.99252522 -1.1107935 3103 515
1.5226629 0.98946494 -1.1076494 3078.6667 511
1.5763491 0.99163008 -1.1105412 3033.2 507
1.6333447 0.99468249 -1.1144722 3020.3335 503
1.6701057 0.98778629 -1.1068858 2992.5 499.5
1.7324897 0.9918859 -1.1120543 2976 495.5
1.7749033 0.98688114 -1.1066718 2977 492
1.8299587 0.9885332 -1.1089886 2963.5 488.5
1.8708036 0.98547065 -1.1058114 2931 485.5
1.9263505 0.98984021 -1.1112347 2901.25 482.5
1.9767135 0.98590612 -1.1071367 2902.6667 479
2.0322456 0.98827875 -1.1102799 2859 476
2.0797777 0.98557615 -1.1075659 2830 473
2.122618 0.98434925 -1.1065001 2833 470.5
2.169929 0.98468655 -1.1072552 2797.6667 468
2.2185826 0.98498571 -1.1079773 2772 465.5
2.2740228 0.98769939 -1.1115092 2760.3335 463
2.3351898 0.99695963 -1.1225606 2632 461
2.5810356 0.98655504 -1.1126034 2664 449
2.6303039 0.97665322 -1.101683 2623 446
2.6821983 0.97700363 -1.102489 2607 444
2.7266588 0.97895956 -1.1050699 2590.5 442.5
2.7556455 0.97476572 -1.1005081 2592 441
2.8399358 0.97522712 -1.1016941 2555 438
2.8833275 0.98053968 -1.1080991 2483 437
2.9206946 0.98343974 -1.1117026 1872 436
0.39602879 1.0048069 -1.1163561 3428 640
0.42242786 1.0071311 -1.1192164 3409.6667 636.33337
0.47372004 1.0049658 -1.1171451 3408.3335 629
0.52305806 1.0054723 -1.1181095 3426.1667 622.16669
0.57776326 1.0071791 -1.1204858 3406 614.79999
0.62805116 1.0062428 -1.1198101 3371.25 608
0.66959262 1.0035465 -1.1170563 3388 602.33337
0.72751498 1.0028317 -1.1166931 3375.2 594.79999
0.79068458 1.0046885 -1.1193072 3358 587
0.84726173 1.0036147 -1.1185236 3359 580
0.87638199 1.0032964 -1.1183879 3348.5 576.5
0.92711931 1.0026383 -1.1180334 3283.5 570.5
0.98070288 1.016983 -1.1117563 3284.6667 564.66669
1.0260618 1.0040116 -1.120375 3260 559.5
1.0798442 1.0019094 -1.1183953 3252 553.5
1.2061374 1.0009575 -1.1182961 3179 540.5
1.2785178 1.0165834 -1.1136403 3139.3335 534
1.4465513 1.0483544 -1.1050284 3084 520
1.5456393 1.0492594 -1.1067532 3028 512
1.6150677 1.0480911 -1.1060209 3014.5 506.5
1.6885546 1.0474733 -1.105912 2965.3335 501
1.7138532 1.0457498 -1.1042476 2953 499
1.7770785 1.0448401 -1.1037468 2953 494.5
1.8108705 1.0474691 -1.1068337 2925 492.5
1.8832488 1.0495245 -1.1095949 2906 488
1.9078066 1.0453861 -1.1053245 2931 486
1.984583 1.0473042 -1.1079712 2838.5 481.5
2.0254521 1.0464485 -1.1073593 2866.3335 479
2.0736809 1.0442626 -1.1053705 2815.6667 476
2.1256108 1.0431638 -1.1045806 2807.3335 473
2.1905687 1.047883 -1.1101542 2766 470
2.2186584 1.042659 -1.1047416 2797.3335 468
2.2732396 1.0453191 -1.1080191 2768.5 465.5
2.3237991 1.0451939 -1.1082672 2732.3335 463
2.3706341 1.0426159 -1.1058458 2741 460.5
2.4230709 1.0469315 -1.1108899 2707 458.5
2.6936936 1.0358022 -1.1009545 2611 446
2.7343502 1.0364392 -1.1019483 2557.5 444.5
0.42455313 1.0644621 -1.1146356 3370.7144 637
0.47122344 1.0633256 -1.1137654 3357.8335 630.5
0.52115887 1.0693727 -1.1206551 3362.5715 624
0.57171106 1.0651025 -1.1164395 3358.4287 617
0.62555444 1.0664619 -1.1183112 3368.4287 610
0.67416233 1.063135 -1.1150964 3345.8335 603.5
0.71964097 1.0599699 -1.1120327 3361 597.5
0.77268398 1.0613574 -1.1139283 3335.2859 591
0.82485259 1.0593723 -1.1121856 3318.6667 584.5
0.8758949 1.0600853 -1.1133399 3285.3335 578.5
0.9283179 1.0608146 -1.1145222 3285.3335 572.5
0.97819942 1.0598484 -1.1138594 3274 566.79999
1.0262973 1.059521 -1.1138711 3236 561.5
1.0746388 1.0611537 -1.1159953 3221.8335 556.5
1.1263922 1.0598226 -1.1149538 3218.4001 551
1.1704743 1.05427 -1.1093082 3189 546
1.2233185 1.0562322 -1.1118213 3182.4001 541
1.2754394 1.0557814 -1.1117306 3134.6001 536
1.3282773 1.0545373 -1.1107907 3114.3335 531
1.3741823 1.0555677 -1.1122481 3122.2 527
1.4282551 1.0573387 -1.1145647 3071 522.5
1.4809475 1.0565057 -1.1140666 3061 518
1.5209359 1.0542116 -1.111899 3041.25 514.5
1.5776854 1.0540059 -1.112107 3026.6667 510
1.6199404 1.0514535 -1.1096785 3000 506.5
1.6624825 1.0530829 -1.1117554 3021.5 503.5
1.7422234 1.0550698 -1.1144985 2974 498
1.7633586 1.0547527 -1.1143171 2973.5 496.5
1.8377372 1.0500835 -1.1098523 2889 491
1.8715214 1.0518798 -1.1120424 2936 489
1.9403872 1.0503142 -1.110878 2888.5 484.5
1.965506 1.050643 -1.1114221 2867 483
2.1773338 1.0507978 -1.1131927 2785 471
2.5338309 1.0820218 -1.1495152 2097 457
2.738143 1.0645103 -1.1322051 2352 447
0.42918345 1.1273477 -1.1132321 3365.6667 637.5
0.47444639 1.1297351 -1.1159909 3352.6667 631.5
0.52353239 1.1301416 -1.1167647 3334.8572 625
0.57242012 1.1282703 -1.115222 3332.5 618.5
0.6225549 1.1275918 -1.1149008 3312.5715 612
0.67345876 1.1268247 -1.1144952 3320 605.5
0.7202512 1.1241454 -1.1121159 3320.3335 599.5
0.77075779 1.1265737 -1.1149547 3309.3335 593.5
0.82585007 1.1275233 -1.1163244 3289.4287 587
0.87634146 1.1258396 -1.1149844 3270.6001 581
0.9247815 1.1259006 -1.1154021 3273 575.5
0.97635472 1.1225513 -1.1123774 3260 569.5
1.0220764 1.121978 -1.1121306 3212.5 564.5
1.0693048 1.1219223 -1.1124208 3187.3335 559.5
1.121208 1.1202428 -1.1110954 3188.2 554
1.1722983 1.1214679 -1.1127158 3177.8 549
1.2241067 1.1217546 -1.1133875 3157.8 544
1.2726792 1.1226027 -1.1146063 3152.25 539.5
1.3176636 1.1187998 -1.1110719 3121.2 535
1.3740759 1.1191214 -1.1118134 3094.2 530
1.4153584 1.1147547 -1.1076789 3055.3335 526
1.4651747 1.116743 -1.1100655 3035 522
1.5243418 1.1199234 -1.1137321 3018.75 517.5
1.5726471 1.1129837 -1.1070346 3022.4001 513
1.6304934 1.1121445 -1.1066067 2948 508.5
1.6825743 1.1155075 -1.1104069 2964.6667 505
1.722188 1.1089468 -1.1040306 2977.75 501.5
1.7855885 1.1178412 -1.1135353 2938.3335 498
1.8173275 1.10931 -1.1050986 2923.3335 495
1.8773055 1.1135001 -1.1097971 2907 491.5
1.921779 1.106743 -1.1032571 2886.3335 488
1.9758167 1.1149259 -1.1119698 2877 485.5
2.0197368 1.1111054 -1.1084099 2848.5 482.5
2.0783124 1.1099482 -1.1076643 2833.3335 479
2.1237559 1.1052883 -1.1032624 2825.5 476
2.1750317 1.1082129 -1.1066113 2822.5 473.5
2.2184391 1.1060703 -1.1047525 2767.6667 471
2.271142 1.1030033 -1.102023 2779.3335 468
2.3323355 1.1085019 -1.1080605 2772 465.5
2.3707385 1.1069261 -1.1067412 2726.5 463.5
2.4244967 1.1018382 -1.1019655 2729 460.5
2.4786954 1.1013198 -1.1018369 2693.5 458
2.5495696 1.1023878 -1.1034428 2657 455
2.5992808 1.1142452 -1.115858 2273 454
2.8544152 1.1134849 -1.1169595 2264 444
0.47492957 1.1972234 -1.1151613 3308.8 632.79999
0.5363937 1.1894765 -1.1081713 3295 624.5
0.57715756 1.1940339 -1.1128324 3291.3335 619.5
0.62896532 1.1944216 -1.113574 3301.6667 613
0.67618626 1.1916471 -1.1112505 3290.2 607
0.72223461 1.19345 -1.1133082 3287.5 601.5
0.77529258 1.1939119 -1.1141299 3255.6001 595.20001
0.82865614 1.1942987 -1.1148819 3264 589
0.87580919 1.1926208 -1.1136094 3250.6667 583.5
0.92936915 1.1909983 -1.1124359 3209.2 577.40002
0.97918862 1.1914564 -1.1132308 3215.2 572
1.0238141 1.1883545 -1.110575 3208.8 567
1.0784483 1.1905988 -1.1131171 3165.8335 561.5
1.1271976 1.1897792 -1.1126789 3149.5 556.5
1.1707315 1.187366 -1.1106757 3157.8 552
1.2230656 1.1877337 -1.1114019 3135.4001 547
1.2742847 1.1853858 -1.1095161 3108.6001 542
1.3286227 1.1846533 -1.1092014 3086 537
1.3800752 1.1849424 -1.1098461 3062.5 532.5
1.4289299 1.1868639 -1.1120373 3037.25 528.5
1.4807349 1.1847471 -1.1103772 3026 524
1.52722 1.1820548 -1.1081274 2985 520
1.5778755 1.181724 -1.1081718 2988.4001 516
1.6253693 1.1829418 -1.1096785 2986.5 512.5
1.6717247 1.1821793 -1.1092783 2955 509
1.7250929 1.1804208 -1.107973 2933.6667 505
1.7714016 1.1775036 -1.1055062 2937.5 501.5
1.832795 1.1789948 -1.1073744 2902.5 497.5
1.8740623 1.175828 -1.1046324 2920.5 494.5
1.9280293 1.1802918 -1.109298 2875 491.5
1.9660658 1.1734571 -1.1030155 2868.5 488.5
2.0258739 1.1795841 -1.1093179 2871.25 485.5
2.0728805 1.1714697 -1.1018724 2833.6667 482
2.1275711 1.1776245 -1.1081645 2821.5 479.5
2.1786752 1.173552 -1.1046243 2823.3335 476.33334
2.2333908 1.1742322 -1.1056671 2759 473.5
2.2772882 1.1715761 -1.1034334 2777.3335 471
2.3692794 1.172006 -1.1045023 2748.5 466.5
2.4067488 1.1696105 -1.1024728 2720 464.5
2.4805133 1.168426 -1.1018634 2975 461
2.6403472 1.167046 -1.101681 2623 454
2.681366 1.1689494 -1.1037989 2592 452.5
2.7123902 1.1659378 -1.1011326 2235 451
0.43259871 1.2017403 -1.1191905 3300.5 638.5
0.47123906 1.2029662 -1.1206418 3314.5 633.5
0.51410055 1.203823 -1.1217693 3321.6667 628
0.62485659 1.2036009 -1.1223471 3308.6667 614
0.65834135 1.2060351 -1.1249204 3243 610
0.76414847 1.2014874 -1.1213146 3278 597
0.82077646 1.2030585 -1.1232255 3224.5 590.5
0.93072784 1.2011652 -1.1221948 3220 578
1.3251855 1.2492291 -1.1021312 3066 540
1.3946682 1.2498792 -1.1032019 3002 534
1.4656601 1.2492386 -1.1031156 2991 528
1.5526309 1.2488451 -1.103364 2989 521
1.6455113 1.2494859 -1.1045886 2963 514
1.6556349 1.246671 -1.1021131 2979 513
1.7186376 1.2471839 -1.1030147 2912 508.5
1.8136779 1.2476842 -1.1041274 2887.5 502
1.8994156 1.2433167 -1.100773 2893 496
1.9361076 1.2467582 -1.1041405 2904 494
1.9726692 1.2495276 -1.1068993 2849 492
2.0168662 1.2457935 -1.1038291 2855 489
2.0676727 1.2455053 -1.1039214 2856 486
2.1192927 1.2447914 -1.1036341 2829.3335 483
2.1730423 1.244356 -1.103614 2816.3335 480
2.2082577 1.2431834 -1.102798 2795 478
2.3237064 1.2424467 -1.1029336 2734 472
2.3605413 1.2403448 -1.1012886 2736 470
2.4472435 1.2417315 -1.1031451 2738 466
2.4676187 1.2410318 -1.1026537 2694 465
0.43579245 1.2631072 -1.1085043 3279.6667 639
0.47636127 1.268357 -1.1135342 3251.7144 634
0.5283314 1.2694967 -1.1149259 3262 627.5
0.5771119 1.2709386 -1.1165689 3260.1667 621.5
0.62464666 1.2670828 -1.1134119 3243.8335 615.5
0.67361367 1.2654306 -1.1122577 3252.5 609.5
0.72410309 1.2654235 -1.1126021 3251.3335 603.5
0.77585053 1.265928 -1.1134179 3222 597.5
0.82720244 1.2638172 -1.1118655 3226 591.5
0.8738122 1.2596838 -1.108451 3217.6001 586
0.92085105 1.262328 -1.1111692 3177 581
0.97277492 1.2634001 -1.1124995 3166 575.5
1.0274572 1.2597921 -1.1096163 3176.5 569.5
1.0830039 1.2620484 -1.1120428 3130.2 564
1.1285629 1.2624305 -1.112705 3127.5 559.5
1.1723536 1.2594599 -1.1103224 3102.6001 555
1.2232774 1.2575066 -1.1089095 3095.8 550
1.2772673 1.2572725 -1.1090729 3082.2 545
1.3221648 1.2538322 -1.1062734 3063.3335 540.66669
1.3738984 1.2581449 -1.1105334 3034.25 536.5
1.4255362 1.2569046 -1.1097703 3026.6667 532
1.4734414 1.2564011 -1.1096476 3012.5 528
1.5304477 1.2573266 -1.1108807 2996 523.5
1.579062 1.2549571 -1.1090753 2974 519.5
1.6196975 1.2558966 -1.1102073 2940.25 516.5
1.6846771 1.2535174 -1.1085069 2930.5 511.5
1.7244942 1.251687 -1.1071281 2924.5 508.5
1.7792327 1.2551039 -1.1105988 2927 505
1.8335291 1.2512348 -1.1074766 2913.5 501
1.8797296 1.251446 -1.1079885 2873 498
1.973755 1.2503181 -1.1076217 2864 492
2.078213 1.2523304 -1.1101674 2855 486
0.44478354 1.3487684 -1.1164305 3252 639.5
0.47125313 1.3415643 -1.1104625 3231.6001 636
0.52524734 1.3449825 -1.113745 3229.1667 629.5
0.5750401 1.3455538 -1.1145695 3219.5 623.5
0.62825775 1.3420379 -1.1119299 3201.4001 617
0.67629719 1.3450578 -1.1148324 3206.5 611.5
0.72741282 1.3432324 -1.1136208 3205.5 605.5
0.77566379 1.3428614 -1.113631 3210.4001 600
0.8243376 1.3416679 -1.1129422 3196.5 594.5
0.87849915 1.3405637 -1.1123669 3152.6667 588.5
0.92811406 1.3377875 -1.1103342 3175 583
0.97701025 1.3398874 -1.1124572 3148 578
1.028291 1.3364795 -1.1098964 3135.3335 572.5
1.0779549 1.3363214 -1.1100979 3128.5 567.5
1.1223481 1.3343652 -1.1087295 3088.6001 563
1.1726927 1.3322451 -1.1072613 3073.8 558
1.2284174 1.3351182 -1.1100901 3041.4001 553
1.2740407 1.330651 -1.1065874 3061.5 548.5
1.3261017 1.332366 -1.1084036 3035.2 544
1.3800948 1.334453 -1.11055 3016.25 539.5
1.4226663 1.3293097 -1.1064496 2992.75 535.5
1.4752432 1.3271265 -1.1049428 2980 531
1.5316339 1.3331589 -1.1104721 2980.3335 527
1.5702612 1.3270906 -1.1055558 2926 523.5
1.6247306 1.3285859 -1.1072005 2941.5 519.5
1.668733 1.3254737 -1.1048429 2911 516
1.7189327 1.3266416 -1.1061797 2901.5 512.5
1.7670616 1.3249335 -1.1050481 2900.3335 509
1.8255595 1.3244129 -1.1050001 2876.4001 505
1.8800371 1.325266 -1.106097 2883 501.5
1.9146827 1.3218982 -1.1034578 2860.6667 499
1.9673923 1.3193554 -1.101645 2840 495.5
2.0216618 1.3225968 -1.1047785 2864 492.5
2.0931134 1.3187068 -1.1019431 2841 488
2.1267314 1.3175156 -1.1011543 2814 486
2.1732831 1.318419 -1.1022406 2796 483.5
2.2203672 1.3188537 -1.1029304 2766 481
2.3347156 1.3175074 -1.1025561 2734 475
2.3647051 1.3172837 -1.1025684 2729.5 473.5
2.4986229 1.3152174 -1.1017122 2679 467
0.49803576 1.3501405 -1.1179619 3229 633
0.60644102 1.3514252 -1.1197923 3192 620
1.9256251 1.3999107 -1.100943 2852 502
2.1788898 1.3981975 -1.1012394 2743.6667 487
0.44966421 1.4199462 -1.1073015 3172 640
0.4771339 1.4298598 -1.1154587 3185.4001 637
0.52651387 1.4253353 -1.1121453 3180.5715 631
0.57771307 1.4254603 -1.1125845 3178 625
0.62435228 1.4230576 -1.1109598 3175.8335 619.5
0.67321634 1.4252846 -1.1130745 3143 614
0.72099698 1.4227421 -1.1113451 3147.3335 608.5
0.77556318 1.4238081 -1.1125635 3133 602.5
0.82984602 1.4220486 -1.1115069 3130 596.5
0.88284922 1.4248109 -1.1140796 3130.8 591
0.92866844 1.4211534 -1.1114402 3119.6001 586
0.97477293 1.4169185 -1.1083381 3106.8 581
1.0239588 1.4163947 -1.1082419 3089.4001 576
1.0780653 1.4216261 -1.1128085 3109.6001 571
1.1300862 1.421567 -1.1131047 3099.6001 566
1.1724503 1.4141791 -1.1074414 3065.5 561.5
1.2227534 1.4161947 -1.1093955 3049.4001 557
1.2764744 1.4138912 -1.1078978 3017.6001 552
1.3250124 1.4105065 -1.1054957 3025.75 547.5
1.3737477 1.4128879 -1.1077337 3012.25 543.5
1.4280828 1.4132522 -1.1083862 2987 539
1.4784502 1.4078999 -1.1044133 2968.75 534.5
1.5234957 1.4088085 -1.105442 2948 531
1.5764909 1.4098954 -1.1066669 2937.8 527
1.6241212 1.404578 -1.102704 2915.6667 523
1.6741669 1.4066044 -1.1046653 2897.5 519.5
1.7209204 1.4044702 -1.1032574 2884 516
1.7639771 1.4044695 -1.1035417 2869.3335 513
1.8259332 1.4067311 -1.1057708 2865 509
1.8724556 1.403234 -1.103265 2832.6667 505.66669
1.9274092 1.4012425 -1.1020262 2844.5 502
1.9757481 1.4012582 -1.1023585 2821 499
2.0428884 1.4016564 -1.1031228 2816 495
2.0765684 1.4012141 -1.1029897 2810 493
3.0073495 1.4067607 -1.1136068 2319 451
0.63492692 1.4997766 -1.1017234 3088 620
0.95690739 1.4965533 -1.1013628 3080.5 585.5
1.0243713 1.4999641 -1.1043828 3100 579
1.0966748 1.4994369 -1.1044507 3069 572
1.1438022 1.4982672 -1.1038692 3043.5 567.5
1.1605459 1.4990796 -1.1045928 3047 566
1.2132694 1.4961517 -1.1027157 2996 561
1.2879087 1.4978217 -1.1044631 3022 554.5
1.322628 1.4976759 -1.1045772 2998.5 551.5
1.3692118 1.4969159 -1.1043026 2983 547.5
1.4305539 1.4977137 -1.1053033 2950 542.5
1.4658799 1.4955683 -1.1039065 2957.5 539.5
1.5234365 1.4959059 -1.1045343 2942 535
1.5722146 1.4922956 -1.1021147 2922.3335 531
1.6214952 1.4947343 -1.1042805 2885 527.5
1.6756563 1.4939137 -1.104009 2891 523.5
1.735021 1.4898373 -1.1013048 2871 519
1.7783022 1.496142 -1.1063606 2861.5 516.5
1.8418796 1.4928002 -1.1042399 2815 512
1.8717291 1.4920686 -1.1038787 2819.6667 510
1.977473 1.4874364 -1.1010531 2800.5 503
2.0415795 1.4855883 -1.1000675 2834 499
2.0690012 1.4870009 -1.1013149 2826 497.5
0.48109803 1.5144004 -1.1118072 3146.4001 638
0.52529985 1.5168157 -1.1139225 3134.2 633
0.57290232 1.5139475 -1.1120576 3134.6667 627.5
0.6224162 1.5102466 -1.109574 3136.4001 621.79999
0.67452443 1.5098385 -1.1096017 3118.6001 616
0.72583711 1.5124611 -1.11192 3126.6667 610.5
0.77563745 1.5094019 -1.1099244 3124.6001 605
0.82063097 1.5048107 -1.1067371 3134.2 600
0.87403905 1.5064063 -1.1082913 3088.6667 594.5
0.92933559 1.5094426 -1.1109487 3111 589
0.98746812 1.506269 -1.1089203 3056 583
1.0255867 1.5018823 -1.1058437 3098.25 579
1.0744358 1.5056546 -1.1090171 3080.5 574.5
1.1213282 1.5046384 -1.1085503 3062.6667 570
1.1880567 1.5071219 -1.1108631 3042.3335 564
1.2260377 1.50337 -1.1082664 3024 560.33337
1.2643009 1.5042779 -1.1092014 3018.3335 557
1.3279821 1.5044322 -1.1097299 3005 551.5
1.4023137 1.5004852 -1.1072204 2982 545
1.4902803 1.5016295 -1.1086558 2967 538
1.7648703 1.503952 -1.11219 2829 518
0.56058615 1.5980139 -1.1033254 3113 630.5
0.61131513 1.5996704 -1.1048267 3080 625
0.67572832 1.5982774 -1.1042416 3071.3335 618
0.7421177 1.5993308 -1.1054122 3094 611
0.77372241 1.5945596 -1.1022122 3052 607.5
0.83320868 1.5977466 -1.1048596 3092 601.5
0.87027311 1.5928688 -1.1016183 3064 597.5
0.94742358 1.5966752 -1.1048187 3074 590
0.9687506 1.5983137 -1.1061213 3077.3335 588
1.0273213 1.591527 -1.1016556 3028 582
1.0691099 1.5909055 -1.1014771 2997.3335 578
1.1283332 1.5908272 -1.101796 2998.75 572.5
1.168679 1.5936669 -1.1040748 3002.5 569
1.2192559 1.5936474 -1.1043808 2975 564.5
1.2749697 1.5913305 -1.1030824 2973.5 559.5
1.3260305 1.5939929 -1.1053026 2944 555.33337
1.3683504 1.5892444 -1.1021867 2956.75 551.5
1.4188148 1.5910031 -1.1037592 2919.5 547.5
1.4765342 1.5922683 -1.105026 2942.6667 543
1.5247942 1.5883596 -1.1025459 2911.8 539
1.5780195 1.5887394 -1.1031531 2890 535
1.6223598 1.5854034 -1.1010565 2871.5 531.5
1.6699867 1.5846183 -1.1007984 2845.3335 528
1.7414045 1.5847594 -1.1013507 2844 523
1.7635589 1.5850003 -1.1016626 2829 521.5
1.8456423 1.584667 -1.1019443 2833 516
1.8635101 1.5869484 -1.1036831 2769 515
1.9568506 1.5855726 -1.1032933 2796 509
0.48666108 1.6093671 -1.1109478 3093 639
0.52682436 1.6072698 -1.1097074 3098.6667 634.5
0.58699167 1.6104739 -1.1123713 3072.6667 628
0.62424994 1.6040469 -1.1080273 3108.25 623.75
0.66896439 1.6057162 -1.1094997 3104.6667 619
0.72064137 1.6052742 -1.1095116 3075 613.5
0.77878994 1.6069887 -1.1111012 3064.25 607.5
0.83730251 1.6069553 -1.1114476 3071 601.5
0.89516324 1.6032429 -1.1091683 3076 595.5
0.90944314 1.6016333 -1.1081116 3090 594
1.0351462 1.6053672 -1.1115677 3053.6667 582
1.0981239 1.603411 -1.1105721 3029 576
1.1076744 1.6013147 -1.1091386 3049 575
1.1748186 1.6030002 -1.1107645 3018 569
1.2524049 1.6002562 -1.1093 3021 562
1.3231896 1.6008669 -1.1101831 2970 556
0.64113969 1.6990668 -1.1029302 3091 624
0.82176363 1.6967189 -1.1024773 3041 605.5
0.91449106 1.6986566 -1.1043506 2994.5 596.5
0.98122132 1.6957924 -1.1028455 2991.3335 590
1.0288858 1.6950316 -1.1026314 2987.5 585.5
1.0780823 1.695513 -1.103259 2975.4001 581
1.1167516 1.6955049 -1.1034935 2967.5 577.5
1.1615775 1.6953321 -1.1036556 2967.5 573.5
1.2195761 1.6963612 -1.1047049 2963.5 568.5
1.2765704 1.6937467 -1.1033067 2942.5 563.5
1.3179538 1.6930546 -1.1030996 2939.3335 560
1.3724158 1.6922672 -1.1029097 2927 555.5
1.4338355 1.6906679 -1.1022191 2917.5 550.5
1.4701405 1.6906685 -1.1024446 2877.6667 547.66669
1.5265083 1.6929609 -1.1043303 2865.25 543.5
1.5681386 1.6869074 -1.1005327 2853 540
1.6181849 1.6894939 -1.102576 2855.5 536.5
1.722188 1.6871513 -1.1016514 2835 529
1.7931668 1.6842897 -1.1001744 2778 524
0.493696 1.7146078 -1.1124279 3041 640
0.52076846 1.7098614 -1.1094159 3045 637
0.57231611 1.7083873 -1.108748 3033.8335 631.5
0.62134284 1.7128791 -1.1120613 3044.25 626.5
0.67413831 1.7116225 -1.1115469 3042.4001 621
0.7214126 1.7069234 -1.1086916 3036 616
0.76972067 1.704023 -1.1070482 3054 611
0.82454592 1.7033105 -1.1069107 3039.25 605.5
0.88005716 1.7022542 -1.1065474 3020.2 600
0.93782401 1.7038813 -1.1079957 3012 594.5
0.95809042 1.7023768 -1.1071135 3013 592.5
1.0103823 1.7109503 -1.1131818 3011 588
1.1381966 1.7033352 -1.1088725 2996 576
1.1516914 1.7069792 -1.1113976 2958 575
1.5930048 1.7994246 -1.100659 2830 543
1.6762959 1.7978444 -1.1001729 2793 537
0.52889127 1.8199648 -1.1070908 3007.6001 638
0.57857311 1.8221092 -1.1087408 3009.2 633
0.62672967 1.816523 -1.1055235 3000.8 628
0.67732835 1.8180445 -1.1067874 3006.2 623
0.72720641 1.8156464 -1.1055841 2988.4001 618
0.7779488 1.8142108 -1.1049907 2982.4001 613
0.83053201 1.8157657 -1.106288 2977.4001 608
0.87744981 1.8144623 -1.1057543 2992.25 603.5
0.92000639 1.8100765 -1.1032572 2977.6667 599.33337
0.97781754 1.8102591 -1.1037238 2959.4001 594
1.0291274 1.8136717 -1.1061804 2941.25 589.5
1.0878218 1.8078537 -1.1028817 2962 584
1.1124396 1.8112358 -1.1051567 2967.6667 582
1.181119 1.8096921 -1.1046046 2908.6667 576
1.207303 1.8043001 -1.1013757 2937 573.5
1.2656617 1.8051291 -1.1022518 2929.3335 568.66669
1.3308067 1.8047632 -1.1024181 2913 563.33337
1.3952993 1.8011752 -1.100556 2881 558
1.4098144 1.8036166 -1.1021785 2890 557
0.53936857 1.9456935 -1.1079547 2962.3335 639
0.57414603 1.940501 -1.1051073 2963 635.5
0.62586069 1.9404356 -1.1053779 2957.25 630.5
0.67786467 1.9395566 -1.1051717 2942.75 625.5
0.72041368 1.9350643 -1.1027827 2950.6667 621.33337
0.77422839 1.9343241 -1.1026689 2944.5 616.25
0.82600546 1.9359065 -1.1039096 2931.25 611.5
0.88651723 1.9367847 -1.1047881 2921.3335 606
0.90642226 1.931384 -1.1017292 2904 604
0.96853769 1.9329151 -1.1030015 2904 598.5
1.0314257 1.9334006 -1.1036632 2878 593
1.0798268 1.9297713 -1.1018169 2893.3335 588.66669
1.118183 1.9321762 -1.1034613 2895 585.5
1.1915303 1.9350362 -1.1055825 2892 579.5
1.2049912 1.9265393 -1.1006634 2889 578
1.2753844 1.9311199 -1.1037796 2877.5 572.5
0.57092357 2.0751281 -1.1043799 2909 638
0.62486714 2.0745437 -1.1043757 2911.2 633
0.6787219 2.0715828 -1.1030638 2900 628
0.7276175 2.0692811 -1.1020851 2889 623.5
0.7768811 2.0668807 -1.1010544 2888 619
0.82740134 2.0667667 -1.1012887 2875.5 614.5
0.89015752 2.0672116 -1.1019025 2868 609
0.9086923 2.0705357 -1.1038401 2846.5 607.5
0.98313665 2.0673599 -1.1025307 2896.5 601
1.0405158 2.0631239 -1.100538 2864 596
1.0530523 2.0644042 -1.1013161 2851 595
0.58552808 2.2279537 -1.1046579 2820.3335 639
0.63037932 2.224488 -1.1031411 2842.3335 635
0.67575967 2.2225626 -1.1024168 2830.5 631
0.71576357 2.2211032 -1.1019003 2860 627.5
0.79171425 2.2215171 -1.1025523 2851 621
0.80291367 2.2196841 -1.1016777 2824 620
0.86688066 2.2160361 -1.100178 2837 614.5
0.94604445 2.2186797 -1.1019914 2813 608
1.6339815 3.0418272 -1.1029122 959 581.5
1.6621325 3.0459187 -1.1045946 1132 580
1.8536406 3.0367403 -1.1022211 2130 569
1.6837151 3.0538619 -1.1076788 1263 579
1.7220459 3.0595672 -1.1100197 1502 577
1.3812981 -3.4683967 -1.0797966 2549.5 38.5
1.4053054 -3.4608357 -1.0774972 2240 40
1.6211087 -3.4960284 -1.0899718 1391 51
2.7671323 -3.479362 -1.0908191 1848.5 105.5
2.8233685 -3.4884706 -1.0940499 2429 107.5
2.8682241 -3.4821095 -1.0922489 1954 109.5
1.3276129 -3.417573 -1.0631772 2780.5 36.5
1.4124122 -3.4088202 -1.0608242 2189.5 41.5
1.4623634 -3.4226656 -1.0655427 1536 44
2.8603661 -3.4251108 -1.0738938 1772 111
1.435523 -3.3997171 -1.0580245 1855 43
2.8624945 -3.3815396 -1.0599067 1779.5 112.5
1.4049946 -3.1597002 -1.0843894 2455 46
2.8705676 -3.1665058 -1.0948089 1858 119
1.3046063 -3.1156652 -1.0682523 1787 41
1.3663908 -3.1262174 -1.0723255 2646.5 44.5
2.8708396 -3.1247463 -1.0800275 1894.5 120.5
1.3198863 -3.0918303 -1.0598981 1860.5 42.5
2.8842728 -3.0846162 -1.0658947 1918.5 122.5
2.8836122 -3.0430899 -1.0511906 1920 124
1.2328584 -2.9161675 -1.0932999 1150.5 40.5
1.2712353 -2.9151323 -1.0931115 1327 43
1.3312314 -2.9087188 -1.0909619 1542 47
1.3704779 -2.9266281 -1.0981069 1429 49
2.8846638 -2.9062142 -1.0985746 2014 128
0.96563286 -2.8545291 -1.0679789 1158 24
1.2958183 -2.8988714 -1.0869567 1573 45
2.8803301 -2.8635647 -1.0820518 1984.5 129.5
0.84604138 -2.8345861 -1.0596032 2967 16
2.8831768 -2.8164718 -1.0638494 2008 131.5
2.8876915 -2.7840827 -1.0513446 2030 133
2.8932004 -2.6605771 -1.0949359 2052 137
2.8911865 -2.6239257 -1.0794935 2078 138.5
0.84154791 -2.5839522 -1.0512054 3429 20
2.896544 -2.594599 -1.067176 2067 140
2.9019146 -2.5656624 -1.055023 2076.5 141.5
2.8952065 -2.4502091 -1.090297 2089 145
0.5906508 -2.3915317 -1.0505474 3280 3
3.5277486 -2.3772264 -1.0606632 774.5 171.5
3.5516295 -2.3614812 -1.0536327 1544 173
2.8650084 -2.2859893 -1.098946 2172 150
2.938642 -2.2559867 -1.0846243 2831.5 154.5
3.0245311 -2.2538331 -1.084059 2927 158
3.601284 -2.2551403 -1.0880125 147 178
2.9615519 -2.224582 -1.0693226 2914 157
3.0097508 -2.2225411 -1.0685962 2911 159
3.5668094 -2.2122078 -1.0667161 409 179
2.9977663 -2.1937308 -1.0543691 2836 160
1.793501 -2.1073747 -1.0836023 2473 102
3.0410366 -2.1155772 -1.0952076 2749 164
3.0740016 -2.1203756 -1.0979357 2247 165
3.1039586 -2.1227446 -1.0993624 2418 166
1.6734709 -2.0507236 -1.0529618 2727 97
1.6245046 -1.9546363 -1.0747662 2205 97
1.7133801 -1.993295 -1.0971562 2338 101
0.96490109 -1.9277341 -1.0556469 2262.3335 45.666668
1.6278114 -1.9221944 -1.0564378 1983.3334 99
2.1613185 -1.8626728 -1.0998894 2794 134
3.0973718 -1.8182927 -1.0786775 2178 179
3.0864625 -1.7864577 -1.0593526 2560.5 180.5
3.0604055 -1.7292886 -1.0959861 1137 181
1.9689232 -1.6700646 -1.0510429 3096 133
1.9341707 -1.6210918 -1.0868586 3157 132
2.6252732 -1.6127071 -1.0854173 806 169
1.9279361 -1.5801609 -1.0586927 3186 134.5
3.6075976 -1.5568539 -1.0531769 760 207
1.9296942 -1.5210292 -1.0859972 3172 136.5
3.6303322 -1.5013589 -1.0824661 106 209
1.9396257 -1.4894023 -1.0629292 3194.5 139.5
2.423713 -1.4775152 -1.0573251 598 167
3.625772 -1.4756149 -1.0636083 331 210.5
1.9376854 -1.4352607 -1.0899026 3252 141
1.9652003 -1.4189088 -1.0773726 3064.6667 144
2.0280843 -1.4226871 -1.0807197 3034 147.5
2.0721307 -1.4175413 -1.0770073 2998 150.5
2.126307 -1.42502 -1.0831738 2977.6667 153
2.1707697 -1.4183977 -1.0783167 2969.3335 156
2.2132444 -1.4223231 -1.0816449 2982 158
2.2515111 -1.4355363 -1.0921646 2906 159
2.3532085 -1.4253998 -1.0849496 378 165
3.2380183 -1.4301 -1.0943768 1310 200
3.2703989 -1.4158838 -1.0835384 824 202
3.6191311 -1.400955 -1.0742106 151 213
2.3204627 -1.3766801 -1.0685358 344.33334 166.33334
3.1777225 -1.3881378 -1.061368 1277 201
3.6189375 -1.3856367 -1.0623032 261 214
2.319804 -1.3221811 -1.067736 353.20001 169
2.6400151 -1.3123567 -1.0617747 169 184.5
2.7278469 -1.3135687 -1.0633603 232 188
3.6159501 -1.3073963 -1.064202 138 217
3.6540599 -1.3365803 -1.0885166 146 216
2.3414359 -1.2602048 -1.081466 388.5 172.5
2.394206 -1.2667568 -1.0875604 213.5 174.5
2.4678123 -1.2661796 -1.0875591 606 178
2.5331445 -1.2774862 -1.0978997 307 180
2.6429019 -1.2500625 -1.0746554 1669 187
2.6653788 -1.2734149 -1.0952426 1195 186
2.7044821 -1.2684839 -1.0911957 1849 188
2.8255482 -1.2651458 -1.0891039 2294.3335 193
3.6216402 -1.2948898 -1.0539292 448 218
2.3908689 -1.2474499 -1.0706439 1461 176
2.4006128 -1.2412511 -1.0652868 1740 177
2.5940323 -1.2043309 -1.0988597 2132 186
3.1336527 -1.2359174 -1.0656383 2234 206
3.1929674 -1.2340958 -1.0644505 2222 208
3.2583919 -1.2472053 -1.076369 1864 209
3.61428 -1.2235899 -1.0581422 225 220.5
2.586257 -1.1776402 -1.0740438 2185 188
2.6107972 -1.1609557 -1.058738 1999 190.5
3.6635094 -1.1728516 -1.0771723 183 223
2.5515084 -1.1175736 -1.080439 2430 189
3.6350965 -1.1497465 -1.0555379 405 224
2.5406199 -1.0629072 -1.091423 2549 190.5
2.5541513 -1.0971876 -1.0604292 2382 191
2.5069964 -1.0210364 -1.0799789 2523.5 191.5
2.4868693 -0.98125613 -1.0691754 2556 193
2.5118859 -0.99168283 -1.0808917 2549 193
3.1883996 -0.96833736 -1.0602841 2364 219
2.4874604 -0.92970514 -1.0755116 2638.4001 195
2.5154312 -0.87540096 -1.0764645 2588 198.5
2.5400755 -0.82636368 -1.0810984 2498.6667 201.33334
2.5537715 -0.82532144 -1.0798392 2505 202
2.6208661 -0.8221572 -1.076234 1407 205
3.6546524 -0.74775761 -1.0505375 430 239
2.2709978 -0.60476047 -1.099745 3147 197
2.4419019 -0.60135669 -1.095382 2675 205
3.643671 -0.62819797 -1.0776545 2413 241
1.5305908 -0.56459999 -1.0965548 3095 153
1.5865347 -0.58910209 -1.0639468 3174 159
2.4221828 -0.58977842 -1.0741131 2810 206
3.6360426 -0.57635003 -1.0626708 2663 243
1.4150522 -0.50934047 -1.0652506 2933 148
1.9830931 -0.54487658 -1.0631801 3091 187
2.4198418 -0.5499298 -1.0779746 2852 207
2.4528148 -0.51322144 -1.0858181 2835 209
3.2433848 -0.51238728 -1.0935341 2018 234
3.6641443 -0.53989875 -1.0724577 2718 244
1.3951509 -0.47500244 -1.077239 2778.5 146.5
1.4933717 -0.46762621 -1.061769 2614 156.5
1.5194292 -0.46802738 -1.0630112 2580 158.5
3.6446855 -0.45648885 -1.063984 2676 246
3.6629715 -0.49945435 -1.0714273 2667 245
1.3900681 -0.43178946 -1.0663394 2924 148.5
1.4124082 -0.40472865 -1.0929565 3076 149
1.4730978 -0.4300856 -1.0632848 3242 156
1.5205539 -0.40457106 -1.0941267 3131 158
2.061667 -0.40378195 -1.0999804 2935 193
3.6499426 -0.41767392 -1.0625368 2696 247
1.3906558 -0.37949181 -1.057938 2932.3335 151
1.4009689 -0.36038676 -1.0743178 3045 151
1.4557561 -0.38882327 -1.051025 3260 157
1.53141 -0.37957281 -1.0784681 3215.5 161
1.5798798 -0.36542302 -1.0919744 3207 164
3.6276221 -0.37684205 -1.0509297 2822 248
1.3935218 -0.3190909 -1.0581362 3006 153
1.4024587 -0.324467 -1.0757403 3074 152
1.5075768 -0.32670087 -1.0848294 3214 160
1.588238 -0.33045992 -1.0984405 3144 165
2.0484831 -0.32577017 -1.0912733 2935 195
3.2462492 -0.32093108 -1.0965257 2276 238
3.2718196 -0.31671655 -1.0832952 2331.5 239.5
3.3705554 -0.31999299 -1.0956563 2155 241
3.6368089 -0.32585773 -1.0611062 2706.5 248.5
1.4071903 -0.27183411 -1.0778716 3061 153.5
1.4900758 -0.26896134 -1.0683928 3233 161.5
2.0622537 -0.27292699 -1.0954714 2952.5 196.5
3.230372 -0.2858789 -1.0994285 2210 238
3.2875214 -0.28297931 -1.0900567 2217 240
3.3039188 -0.28030226 -1.0807016 2279 241
3.6659553 -0.27690098 -1.0754058 2634 249
0.66975868 -0.22773561 -1.099565 3677 63
1.3905494 -0.23166199 -1.0559918 3073.5 155
1.420897 -0.22299248 -1.0959063 3146 154
1.509186 -0.21907151 -1.0797993 3231 163
1.5694132 -0.21818039 -1.077125 3205 168
3.240696 -0.23189452 -1.0993891 2238.5 239
3.2760296 -0.22940345 -1.0894036 2244.25 240.5
3.3644741 -0.23087335 -1.0979011 2156 242
3.6405747 -0.23745927 -1.0583808 2760 250
0.39238685 -0.16788547 -1.0980105 3902 627.66669
0.47906789 -0.16695297 -1.0968299 3803 418.66669
0.51759565 -0.15211299 -1.0984889 3837 605
0.58958161 -0.15936512 -1.0976461 3817.3335 592.66669
0.66339791 -0.16772398 -1.0993434 3712 322
0.81840849 -0.16631328 -1.0968535 3628 557
0.92629212 -0.1726965 -1.0997487 3553 542.5
1.3862867 -0.16846304 -1.0574826 3201.8335 432.66669
1.413274 -0.17259938 -1.0887964 3226.3335 377.83334
1.5230098 -0.17351148 -1.0928938 3259.5 427.33334
1.5710731 -0.16119316 -1.0811899 3264.75 398.5
2.0478058 -0.1723478 -1.0940645 2978 446
3.205615 -0.17926256 -1.0954077 2248 239
3.2584734 -0.17977534 -1.099682 2231 240
3.3215082 -0.17937872 -1.0993228 2199 241.5
3.389365 -0.17913799 -1.0999441 2208 243
3.6789908 -0.17042874 -1.05976 942.33337 345
0.38412589 -0.1144729 -1.0999434 3893 629
0.5403384 -0.13517702 -1.09988 3845 601
0.57518899 -0.13530743 -1.0993761 3854 595
0.68474329 -0.13581623 -1.0987877 3741 577
1.3915086 -0.12555735 -1.061201 3178.5 322.5
1.4115517 -0.11856586 -1.084765 3241.5 322
1.4748189 -0.13330476 -1.0573413 3358.6667 374.66669
1.5045329 -0.11616022 -1.0704625 3242 165
1.5693934 -0.12735392 -1.0778111 3246.5 322.5
3.188776 -0.12764105 -1.0957212 2326.5 239
3.241607 -0.14478579 -1.0982335 2298 240
3.27107 -0.12717476 -1.0954554 2332 241
3.3090119 -0.12671791 -1.0936379 2268.5 242
3.3521748 -0.12640686 -1.0933583 2182 243
3.692879 -0.14797604 -1.064393 204 392
0.41994834 -0.079980806 -1.0988115 3783 21.333334
0.45320159 -0.056992002 -1.0988401 3778 27.5
0.54760838 -0.081050679 -1.0973523 3816.5 321.5
0.67676139 -0.064090535 -1.0981469 3728.5 319
0.72072256 -0.08391653 -1.0986785 3734.5 571
1.0587304 -0.053709012 -1.0964715 3453 119
1.2525818 -0.052828565 -1.098297 3288 140
1.388401 -0.073715746 -1.0578942 3236.75 486.75
1.4166543 -0.077942148 -1.0850462 3192.6667 267.33334
1.495181 -0.051359009 -1.0724709 3323 479
1.5302854 -0.063173547 -1.0712005 3325.5 398.25
1.583627 -0.068531096 -1.0938362 3216.5 322.5
2.0468655 -0.079012007 -1.0921124 2994 445
2.081013 -0.082449213 -1.0950543 2931 200
3.0688 -0.074926578 -1.0698448 2699 238
3.127995 -0.080146566 -1.0882583 2632 322.5
3.208811 -0.076367602 -1.0924978 2343 240
3.2670226 -0.075898044 -1.0907378 2365.5 241.5
3.3225172 -0.075282775 -1.0873065 2343 243
3.3859658 -0.075586483 -1.0939182 2173 244
0.38232008 -0.023692183 -1.0980554 3791 14.5
0.48170981 -0.021995937 -1.0980513 3828.5 323
0.55929565 -0.022726271 -1.0966089 3743 46.5
0.60374868 -0.022527687 -1.0974369 3716 54
0.69003487 -0.022114974 -1.098307 3688 68
0.71328002 -0.022113765 -1.0999311 3762 572
0.76460636 -0.021730136 -1.0982971 3617 79.5
0.81618351 -0.021503989 -1.0993732 3503 87
0.87247592 -0.021182919 -1.0985389 3501 95
0.91704226 -0.020982627 -1.0993365 3503 101
1.0593638 -0.020211101 -1.0983154 3447 119
1.2412262 -0.019257003 -1.0978701 3271 139
1.3929999 -0.030510139 -1.0566971 3232 267.66669
1.4331805 -0.018242547 -1.0971997 3226 157
1.4821736 -0.021221677 -1.055346 3404 322.5
1.5392593 -0.026322369 -1.0582802 3347 474
1.5848039 -0.021963863 -1.0966963 3192.5 322.5
2.0845609 -0.029178452 -1.0994716 2981 443.5
2.3202331 -0.047348175 -1.0987879 2804 211
2.4809217 -0.035204753 -1.096817 2771.6667 217.66667
3.1822276 -0.042951137 -1.0996037 2432 239
3.2305496 -0.042369794 -1.0945768 2259 240.5
3.2731862 -0.019676227 -1.0926082 2252.6667 241.66667
3.306982 -0.024644494 -1.0838294 2246 243
3.3661633 -0.024671692 -1.0890161 2252.5 244
3.7102017 -0.037511509 -1.0616987 315 391
0.32888576 0.030985115 -1.0989738 3868.6667 4.3333335
0.37662828 0.042023458 -1.0956353 3881 13.5
0.42789561 0.020099007 -1.0957007 3816.8335 121.83334
0.48444229 0.031761128 -1.0960474 3775 33.333336
0.53053367 0.023160251 -1.0975306 3771.7144 203.00002
0.57929581 0.02001809 -1.097679 3749.6667 233.33334
0.63259047 0.035232469 -1.0974346 3705.75 58.75
0.66322583 0.035403471 -1.097265 3689.5 63.75
0.72886372 0.027604317 -1.0988325 3628 74
0.77151394 0.019679172 -1.098627 3628.25 80.5
0.86935222 0.028332215 -1.0992296 3548.5 94.5
0.91590059 0.044829909 -1.0970165 3533 101
1.0153165 0.029098786 -1.0999178 3435.5 113.5
1.0637934 0.029314954 -1.0982473 3440.5 119.5
1.2050713 0.046377596 -1.0999123 3311 135
1.3005439 0.014295598 -1.096544 3244 145
1.3913133 0.014936194 -1.0652781 3298 487
1.4167821 0.021154474 -1.084318 3242.3335 267.66669
1.4719694 0.014107458 -1.0544593 3408 479
1.5782634 0.029417593 -1.0953152 3198.2859 255.85715
2.1746628 0.018876985 -1.0871377 2922 205.5
2.2324486 0.019108549 -1.095165 2874 207.5
2.2765872 0.01938922 -1.0887057 2855.6667 210
2.3288209 0.019632977 -1.0917836 2815 212
2.3737111 0.019826703 -1.0963407 2814 213.5
2.4239671 0.020082951 -1.0966675 2785 215.5
2.4698985 0.0203414 -1.0940243 2789 217.5
0.37313175 0.089129291 -1.0988756 3834.4001 12.6
0.42527744 0.082183436 -1.095088 3798.375 22.5
0.46817842 0.084108077 -1.0957619 3773.8574 30.285715
0.52494377 0.094433136 -1.0965551 3749.0002 40.285717
0.58103228 0.081808895 -1.0980966 3757.5 140.66667
0.62482113 0.088988245 -1.0942796 3697.75 57.5
0.66884315 0.080350623 -1.0961486 3721.8574 210.71429
0.72374165 0.0877923 -1.0983768 3660 73
0.78827238 0.095679186 -1.0947944 3594 83
0.80399078 0.072707891 -1.0999688 3589 85
0.8824445 0.096440136 -1.0990562 3506 96
0.93123138 0.096607566 -1.0977461 3476 102.66667
1.0419891 0.097249255 -1.0988297 3452.5 116.5
1.0670128 0.085592337 -1.096674 3429.75 119.75
1.1069015 0.081939094 -1.0974429 3389 124.33334
1.2305456 0.082578003 -1.0974717 3282 137.66667
1.3395392 0.098825581 -1.0994515 3210 148
1.3999515 0.05721622 -1.0716065 3236 487
1.411648 0.086087637 -1.0681816 3164.8 223.8
1.4905387 0.056518424 -1.0684197 3373 479
1.5044656 0.087715745 -1.0778605 3293 479
1.5841432 0.085199088 -1.0883396 3179.7144 256.71429
2.0030637 0.083917253 -1.0655749 3128 445
2.1770046 0.055167437 -1.0988526 2961 439
2.216532 0.054835379 -1.0970796 2886 437
2.2862208 0.05458549 -1.0986061 2898 434
2.3165555 0.066314794 -1.0743026 2880.5 323.5
2.3699486 0.054202698 -1.0992954 2845.5 430.5
2.4300611 0.080686525 -1.0907748 2795 216
2.462888 0.081012778 -1.0943156 2845 217
3.2782969 0.085213229 -1.0942055 2225.5 241.5
3.3347569 0.085361995 -1.0909927 2172 243
3.3840797 0.085685171 -1.0925449 2154 244
3.6844249 0.07385163 -1.051842 418 391
0.34642321 0.12143224 -1.0976993 3817.5 7.5
0.3790288 0.1183851 -1.0932615 3810.8335 13.833334
0.43108404 0.12299475 -1.0970539 3804.2859 23.285715
0.47829235 0.12484817 -1.0968747 3792.6667 31.833334
0.51840287 0.11938818 -1.0966388 3743.6667 39
0.56625593 0.11957 -1.095906 3719.7778 47.333332
0.62182355 0.1215837 -1.097013 3710.5715 56.57143
0.6753822 0.1218455 -1.0968544 3685.2859 65.285721
0.73375404 0.11488196 -1.0966513 3607.5 74.5
0.76936412 0.11495337 -1.0952635 3627.5 80
0.81392002 0.115227 -1.0957971 3583 86.5
0.8614623 0.12128066 -1.0978806 3510.6667 93
0.91154337 0.12417945 -1.0957286 3501 100
0.95177954 0.13302593 -1.0979427 3479 105
1.0152324 0.13334839 -1.0978804 3433 113
1.0607834 0.12519704 -1.0986218 3438 118.5
1.1227567 0.12538925 -1.0973928 3383 125.75
1.1840429 0.12302863 -1.0988512 3319 132.33334
1.2400935 0.12580164 -1.0950584 3289 138.5
1.2588967 0.11786357 -1.0999404 3297 140
1.3939422 0.11537989 -1.0618539 3173 487
1.4200443 0.12802888 -1.0803028 3199.5 267.66669
1.4978101 0.11544498 -1.0549381 3269 166
1.5169656 0.13302261 -1.0786591 3260.3335 374.66669
1.5724113 0.11747976 -1.0820498 3209.3335 270.66669
1.6028757 0.12727325 -1.0911031 3145 170.5
2.0900073 0.12022005 -1.0910705 2915 200.5
2.1254084 0.125113 -1.0984095 2884.8 201.60001
2.1688824 0.12908433 -1.0969194 2875.2 203.8
2.2347486 0.10335363 -1.0979952 2827 207
2.2744513 0.12182987 -1.0994368 2838 208.5
2.3176763 0.12592363 -1.0964016 2788.6001 210.60001
2.3675652 0.11522394 -1.0987102 2793.6001 212.60001
2.4157734 0.11411355 -1.0997049 2756.5 214.5
2.4801326 0.12294225 -1.0947301 2770 217.33334
2.5038824 0.13248913 -1.0967891 2751 218
3.2203674 0.12654442 -1.0923111 2256 240
3.2787292 0.13049541 -1.0916309 2220.4001 241.40001
3.3219686 0.12196946 -1.086941 2211.25 242.75
3.3724499 0.12667742 -1.0845382 2187.6667 244
3.4249771 0.11849315 -1.0877913 2229.5 245
0.69572139 0.15469682 -1.0993688 3771 575.5
1.4002343 0.17769106 -1.0694144 3155 488
1.4802004 0.17517988 -1.0577388 3332 480
1.589292 0.18112096 -1.0940732 3236 475
3.6690445 0.16317198 -1.054666 1528 392
0.58550757 0.22035418 -1.0974042 3791 594
1.3912553 0.23787414 -1.0501479 3056 488
1.4098215 0.222495 -1.0769403 3188 488.66669
1.4837017 0.23949148 -1.0590463 3324 481
1.5358837 0.2101132 -1.0722346 3301 477.5
1.3952347 0.27254498 -1.0561253 3060 489
1.4191654 0.28060073 -1.0868047 3197 490
1.5413136 0.28302234 -1.0983254 3214 481
2.0657654 0.27960443 -1.0959959 3012 447
0.3875474 0.32413507 -1.0993296 3826 630
1.398216 0.30425984 -1.0506649 2963 489
1.407812 0.32196957 -1.0722902 3138 490.66669
1.5243325 0.33149356 -1.0869024 3294.5 482.5
1.5678854 0.32658795 -1.0710354 3256 477.5
3.1769433 0.30818501 -1.0960993 1057 407
3.219734 0.30605951 -1.0897126 756 405.5
3.2759027 0.30292323 -1.0801626 516.5 403.5
3.3892288 0.30744651 -1.0974551 360 402
0.85166657 0.3563242 -1.0981418 3563 556
1.4117594 0.3791455 -1.0674813 3011 491.5
1.5050746 0.38002113 -1.0713404 3294 484
1.5957643 0.38719556 -1.0926917 3224 479
2.0697615 0.38464677 -1.0928203 2996 449
0.49941173 0.43282557 -1.0983595 3714 612
1.4139849 0.42672482 -1.0721244 3042 493.25
1.5165061 0.41963619 -1.0790675 3261 485
1.5739524 0.43545437 -1.0732329 3244 480.5
1.990479 0.44442478 -1.055168 3115 452
1.4143465 0.48136887 -1.0744919 3034.3335 495.33334
1.4765558 0.48301011 -1.0504704 3321 488
1.5323097 0.46147147 -1.0892253 3245 486
1.3964989 0.5443728 -1.0954397 3099 501
1.4112469 0.53040689 -1.0836791 2920.8 498.20001
1.4861671 0.52310818 -1.0534903 3119 489
1.5476395 0.54221815 -1.09284 3044 488
1.5833249 0.53604025 -1.0807645 3062 484
