# .PCD v.7 - Point Cloud Data file format
VERSION .7
FIELDS x y z
SIZE 4 4 4
TYPE F F F
COUNT 1 1 1
WIDTH 1695
HEIGHT 1
POINTS 1695
DATA ascii
2.590480 1.129314 -1.056575
2.693259 1.188900 -1.057003
2.693259 1.188900 -1.057003
2.793541 0.645341 -1.057734
2.823646 0.688902 -1.057868
2.775987 0.538910 -1.057276
2.780279 0.696424 -1.057388
2.744118 0.682894 -1.057276
2.807429 0.889389 -1.057341
2.806623 0.744347 -1.056842
2.810593 0.876180 -1.057003
2.757246 1.034536 -1.057341
2.743797 1.181156 -1.057834
2.759841 1.143164 -1.057834
2.768196 1.004870 -1.057341
2.735194 1.088963 -1.057003
2.766426 1.004228 -1.056665
2.758643 1.025416 -1.056665
2.763332 1.012710 -1.056665
2.780416 1.092170 -1.057834
2.782775 1.078342 -1.056832
2.788799 0.940313 -1.056665
2.803400 1.146121 -1.057647
2.809947 1.005415 -1.056832
2.544963 1.320417 -1.057734
2.636019 1.222092 -1.057526
2.571889 1.265047 -1.057387
2.654418 1.275435 -1.057341
2.652721 1.274620 -1.056665
2.672627 1.239064 -1.057679
2.697611 1.280942 -1.057500
2.703477 1.268515 -1.057500
2.748801 1.269260 -1.057318
2.676458 1.326695 -1.057834
2.729008 1.311275 -1.057318
2.739252 1.285301 -1.056658
2.480273 1.360174 -1.057626
2.517005 1.451478 -1.057526
2.560344 1.373586 -1.057526
2.572034 1.436265 -1.057679
2.631509 1.411765 -1.057500
2.477809 1.358823 -1.056576
2.574113 1.345580 -1.057184
2.609038 1.363836 -1.057003
2.522026 1.438948 -1.056842
2.612335 1.443040 -1.056832
2.457129 1.550684 -1.057526
2.447568 1.565732 -1.057526
2.442436 1.499821 -1.057387
2.458042 1.697521 -1.057834
2.458042 1.697521 -1.057834
2.491253 1.572220 -1.057679
2.533531 1.582646 -1.057834
2.551645 1.710622 -1.057771
2.510359 1.541530 -1.057679
2.600586 1.467949 -1.057500
2.503181 1.628498 -1.057500
2.502730 1.474106 -1.057184
2.495112 1.485127 -1.056842
2.507953 1.540052 -1.056665
2.528975 1.505282 -1.056665
2.543185 1.561688 -1.056832
2.621197 1.511562 -1.056658
2.513283 1.684905 -1.056658
2.447885 1.707197 -1.056832
2.490560 1.719978 -1.056988
2.545008 1.137480 -1.056141
2.513749 1.449600 -1.056158
2.507051 1.461153 -1.056158
2.588755 1.313040 -1.056500
2.623060 1.330439 -1.055990
2.473588 1.283385 -1.055787
2.443406 1.339956 -1.055787
2.581013 1.324081 -1.055816
2.614271 1.433659 -1.055831
2.478849 1.429474 -1.055657
2.557917 1.282633 -1.055657
2.540282 1.480521 -1.055652
2.597295 1.378055 -1.055652
2.519878 1.351877 -1.054965
2.534249 1.324741 -1.054965
2.456369 1.391516 -1.055525
2.490267 1.405677 -1.054965
2.578349 1.238885 -1.055311
2.596198 1.198796 -1.054965
2.598205 1.287906 -1.055474
2.620012 1.421163 -1.055497
2.604867 1.361656 -1.055314
2.453950 1.548678 -1.056158
2.456945 1.764428 -1.056329
2.450317 1.846577 -1.056468
2.458031 1.834716 -1.056143
2.465039 1.753102 -1.056329
2.469659 1.672183 -1.056165
2.480295 1.729800 -1.055999
2.579930 1.498331 -1.056499
2.495269 1.558744 -1.056327
2.576000 1.501338 -1.055831
2.487320 1.490842 -1.055474
2.485681 1.568703 -1.055314
2.474075 1.882396 -1.055285
2.532348 1.647473 -1.055010
2.562540 1.683950 -1.055817
2.553976 1.695202 -1.055492
2.600606 1.624546 -1.055817
2.560453 1.524019 -1.055163
2.574445 1.580883 -1.055010
2.809900 0.713012 -1.055132
2.812095 0.519109 -1.054965
2.825188 0.666362 -1.056500
2.826394 0.652930 -1.055816
2.821365 0.827573 -1.055652
2.770132 0.991169 -1.056327
2.821776 0.965916 -1.056165
2.802632 1.017371 -1.055831
2.802943 0.887968 -1.055652
2.730822 1.087222 -1.055314
2.784935 1.059571 -1.055163
2.705490 0.926111 -1.054965
2.797035 0.900281 -1.054976
2.650065 1.184434 -1.056500
2.651879 1.180368 -1.056500
2.642874 1.195842 -1.055816
2.745733 1.167041 -1.056499
2.645981 1.286403 -1.056327
2.676286 1.316398 -1.056165
2.706721 1.254871 -1.056499
2.680700 1.401297 -1.056329
2.657230 1.441351 -1.055669
2.652909 1.171088 -1.055474
2.686589 1.290893 -1.055497
2.721205 1.216230 -1.055497
2.707636 1.342150 -1.055339
2.812805 1.104893 -1.055340
2.792863 1.156842 -1.055669
2.809962 1.224997 -1.055492
2.768354 1.102165 -1.055163
2.763253 1.114893 -1.055163
2.693525 1.174237 -1.054976
2.655158 1.260784 -1.055314
2.752434 1.245416 -1.055010
2.632664 1.304987 -1.054976
2.854095 -0.343133 -1.074786
2.879791 -0.400124 -1.072617
2.892257 -0.347721 -1.074693
2.898123 -0.285440 -1.074347
2.889131 -0.271136 -1.070540
2.914183 -0.404903 -1.070865
2.919276 -0.350969 -1.070181
2.927791 -0.388497 -1.074969
2.924310 -0.378909 -1.073259
2.937362 -0.289305 -1.074285
2.928981 -0.297555 -1.071549
2.949536 -0.395988 -1.068492
2.943885 -0.248963 -1.075311
2.865355 -0.242322 -1.075136
2.903657 -0.245561 -1.075039
2.943483 -0.230748 -1.074627
2.946388 -0.217339 -1.075311
2.901155 -0.205055 -1.072963
2.927357 -0.206907 -1.068129
2.947031 -0.194672 -1.074969
2.945156 -0.194548 -1.074285
2.869898 -0.180735 -1.075136
2.901836 -0.164877 -1.072270
2.929934 -0.166474 -1.068129
2.939174 -0.185098 -1.071891
2.941668 -0.139992 -1.071891
2.959794 -0.319046 -1.068830
2.960403 -0.392825 -1.072210
2.960527 -0.369757 -1.071196
2.960759 -0.300784 -1.068492
2.973768 -0.329785 -1.074237
2.972833 -0.329681 -1.073899
2.967288 -0.292252 -1.070520
2.968602 -0.278594 -1.070520
2.996004 -0.374188 -1.069183
3.003310 -0.361072 -1.071186
3.002531 -0.351637 -1.070518
3.001380 -0.281670 -1.067514
3.003766 -0.323786 -1.069851
3.004632 -0.333208 -1.070518
3.005513 -0.403503 -1.073856
3.006403 -0.389547 -1.073523
3.011905 -0.376174 -1.074858
3.007443 -0.333519 -1.071520
3.006618 -0.296126 -1.069851
3.007556 -0.296218 -1.070184
2.969164 -0.251101 -1.069844
2.969532 -0.209888 -1.068830
2.978156 -0.233467 -1.072547
2.987369 -0.211149 -1.075251
3.009217 -0.268441 -1.069851
3.008541 -0.254431 -1.069183
3.007801 -0.240433 -1.068516
2.988309 -0.197399 -1.075251
2.983265 -0.187875 -1.073223
2.983422 -0.169513 -1.072885
2.978724 -0.169246 -1.071196
2.972892 -0.155193 -1.068830
2.980169 -0.160157 -1.071534
2.987676 -0.142181 -1.073899
3.010468 -0.157155 -1.067514
3.016886 -0.325200 -1.074524
3.022263 -0.236924 -1.073523
3.024601 -0.190478 -1.073189
3.019299 -0.199446 -1.071520
3.021441 -0.222875 -1.072855
3.022121 -0.199632 -1.072521
3.022889 -0.171755 -1.072187
3.024771 -0.171862 -1.072855
3.025284 -0.162582 -1.072855
3.053088 -0.357558 -1.073473
3.043789 -0.394391 -1.071824
3.049165 -0.366585 -1.072484
3.052577 -0.310111 -1.071494
3.054372 -0.329241 -1.072813
3.055806 -0.286778 -1.071824
3.059065 -0.329747 -1.074462
3.058975 -0.272880 -1.072484
3.061138 -0.258879 -1.072813
3.061728 -0.240018 -1.072483
3.061617 -0.202241 -1.071494
3.065625 -0.226134 -1.073472
3.065992 -0.193085 -1.072813
3.064291 -0.174108 -1.071824
3.033520 -0.407263 -1.068857
3.035267 -0.379092 -1.068197
3.036979 -0.365120 -1.068197
3.040693 -0.403479 -1.071165
3.041824 -0.379911 -1.070505
3.041149 -0.337257 -1.068527
3.047717 -0.337986 -1.070835
3.050696 -0.300467 -1.070505
3.051636 -0.300560 -1.070835
3.047347 -0.285984 -1.068857
3.051945 -0.243962 -1.069187
3.058770 -0.216195 -1.070835
3.015528 -0.213139 -1.070518
3.055964 -0.201868 -1.069516
3.045586 -0.215263 -1.066219
3.049210 -0.173251 -1.066549
3.087577 -0.371203 -1.070794
3.069536 -0.146077 -1.073143
3.085699 -0.370977 -1.070142
3.088983 -0.342562 -1.070142
3.083021 -0.385056 -1.069817
3.080206 -0.384705 -1.068840
3.097471 -0.242820 -1.069817
3.090123 -0.313926 -1.069491
3.075590 -0.398511 -1.067863
3.068729 -0.407199 -1.065910
3.080721 -0.303425 -1.065910
3.087734 -0.289774 -1.067863
3.086209 -0.275310 -1.066887
3.089555 -0.246969 -1.067212
3.092154 -0.261502 -1.068514
3.093055 -0.166224 -1.066561
3.097057 -0.195041 -1.068514
3.124653 -0.346518 -1.067179
3.168838 -0.351418 -1.066778
3.131940 -0.293923 -1.067822
3.108444 -0.291718 -1.075026
3.106822 -0.205227 -1.072096
3.103015 -0.219322 -1.071119
3.103270 -0.228911 -1.071445
3.178438 -0.224653 -1.066143
3.100083 -0.176141 -1.069165
3.101274 -0.133286 -1.068840
3.102749 -0.161972 -1.069817
3.107635 -0.176571 -1.071770
2.873297 -0.114658 -1.075136
2.913589 -0.089416 -1.075385
2.911156 -0.075933 -1.074347
2.832126 -0.086916 -1.073502
2.949227 -0.117688 -1.074285
2.949632 -0.076937 -1.073943
2.950166 -0.117725 -1.074627
2.992472 -0.091837 -1.074913
3.028739 -0.130169 -1.073523
2.990041 -0.077991 -1.073899
2.986418 -0.128350 -1.073223
2.946036 -0.126615 -1.073259
2.905711 -0.124881 -1.072963
2.983598 -0.128229 -1.072210
2.944158 -0.126534 -1.072575
2.945489 -0.090395 -1.072575
2.984946 -0.091606 -1.072209
2.868613 -0.088036 -1.073035
2.902336 -0.089070 -1.071232
2.941442 -0.099304 -1.071207
2.862433 -0.074663 -1.070584
2.937420 -0.076618 -1.069497
2.930461 -0.089934 -1.067103
2.890523 -0.075395 -1.066733
2.969870 -0.118512 -1.067141
2.978067 -0.100541 -1.069844
3.019706 -0.120500 -1.070184
3.008403 -0.120049 -1.066179
3.018802 -0.092645 -1.069517
3.018255 -0.078727 -1.069183
3.017312 -0.078702 -1.068849
3.063573 -0.131666 -1.070835
3.021205 -0.129845 -1.070852
3.186676 -0.127163 -1.067095
3.051445 -0.103018 -1.066219
3.062527 -0.079882 -1.069846
3.058353 -0.093858 -1.068527
3.057808 -0.079759 -1.068197
3.145168 -0.096523 -1.068143
3.102137 -0.080915 -1.068514
2.836636 -0.056575 -1.074919
2.873301 -0.048488 -1.074436
2.910989 -0.035725 -1.074001
2.910050 -0.035713 -1.073655
2.949473 -0.036197 -1.073601
2.939880 -0.049612 -1.070181
2.979171 -0.059418 -1.069844
2.889218 -0.048757 -1.066040
2.929545 -0.049437 -1.066419
2.862063 -0.048298 -1.070234
2.941017 -0.036094 -1.070523
2.994396 -0.050532 -1.075251
3.032989 -0.051183 -1.074190
3.036962 -0.037271 -1.075526
2.988009 -0.036670 -1.072885
2.984245 -0.036624 -1.071534
3.071628 -0.051835 -1.072813
2.981221 -0.050309 -1.070520
3.066170 -0.037629 -1.070835
3.022824 -0.037097 -1.070518
3.059562 -0.037548 -1.068527
3.059357 -0.051628 -1.068527
3.060128 -0.061032 -1.068857
3.016966 -0.050912 -1.068516
3.101630 -0.061860 -1.068189
2.836987 -0.034817 -1.074919
2.874563 -0.022048 -1.074786
2.835117 -0.034794 -1.074210
2.858508 -0.035081 -1.068833
2.934574 -0.022508 -1.068129
2.834311 -0.021739 -1.073856
2.860584 -0.008776 -1.069533
2.900874 -0.008900 -1.070194
2.935586 -0.009006 -1.068471
3.023905 -0.023194 -1.070852
2.976852 -0.022833 -1.068830
2.990102 -0.009173 -1.073561
3.025865 -0.009283 -1.071520
3.099319 -0.023772 -1.067212
3.095613 -0.009497 -1.065910
3.055058 -0.009373 -1.066879
2.833446 0.008693 -1.073502
2.835117 0.034794 -1.074210
2.837732 0.047888 -1.075273
2.868618 0.048409 -1.072685
2.950621 0.009052 -1.073943
2.991043 0.009176 -1.073899
3.029218 0.051119 -1.072855
3.117877 0.052615 -1.073724
2.874921 0.061751 -1.075136
2.836546 0.060926 -1.074919
2.952773 0.063423 -1.074969
2.834476 0.069582 -1.074210
3.070761 0.089525 -1.072813
2.830442 0.108599 -1.073147
2.868178 0.101236 -1.073035
2.907041 0.049057 -1.072617
2.903289 0.048994 -1.071232
2.864330 0.008788 -1.070934
2.943835 0.036128 -1.071549
2.944578 0.049691 -1.071891
2.904909 0.062395 -1.071924
2.903766 0.071283 -1.071578
2.939408 0.103750 -1.070523
2.986338 0.009162 -1.072209
3.027750 0.009289 -1.072187
2.983440 0.022883 -1.071196
3.023905 0.023194 -1.070852
2.981183 0.091490 -1.070858
3.204371 0.009831 -1.072172
3.066422 0.075276 -1.071165
3.108347 0.095393 -1.070793
2.861449 0.021947 -1.069883
2.899864 0.022242 -1.069848
2.857572 0.035069 -1.068483
2.892430 0.008874 -1.067079
2.934574 0.022508 -1.068129
2.856635 0.035058 -1.068132
2.932560 0.035990 -1.067445
2.856443 0.048204 -1.068132
2.972752 0.050166 -1.067479
3.020939 0.037074 -1.069851
3.054842 0.037490 -1.066879
3.145465 0.038603 -1.067822
2.975575 0.050214 -1.068492
3.019794 0.050960 -1.069517
3.054637 0.051548 -1.066879
3.011988 0.064695 -1.066846
3.232316 0.054547 -1.066009
2.859735 0.070203 -1.069533
2.894067 0.111041 -1.068463
2.936594 0.072089 -1.069155
2.975102 0.073035 -1.068492
2.894029 0.084372 -1.068117
2.932837 0.071997 -1.067787
2.970031 0.086588 -1.066803
2.972265 0.104910 -1.067817
2.853814 0.109496 -1.067782
2.891582 0.102062 -1.067425
3.021199 0.074166 -1.070185
3.062127 0.093974 -1.069846
3.149098 0.091808 -1.069429
3.099984 0.090376 -1.067863
3.014602 0.074004 -1.067848
3.056001 0.107865 -1.067868
3.097481 0.109329 -1.067212
3.096586 0.076017 -1.066561
2.996687 -0.281230 -1.065845
2.998603 -0.211943 -1.064510
3.060605 -0.410899 -1.063305
3.069919 -0.359529 -1.064282
3.073098 -0.331259 -1.064282
3.074038 -0.331361 -1.064608
3.077899 -0.303146 -1.064933
2.916226 -0.058162 -1.061630
2.888117 -0.057602 -1.065694
3.048869 -0.121664 -1.065560
3.050804 -0.093627 -1.065890
3.045261 -0.158971 -1.064901
3.005314 -0.101461 -1.064844
3.039357 -0.163338 -1.062922
3.040379 -0.121325 -1.062593
2.887739 -0.008859 -1.065348
2.847470 -0.008736 -1.064630
2.928068 -0.008983 -1.065735
3.009840 -0.009234 -1.065845
3.048374 -0.023381 -1.064571
2.887739 0.008860 -1.065348
3.007955 0.009228 -1.065177
2.848407 0.008739 -1.064980
3.049393 0.009356 -1.064901
2.968246 0.036428 -1.065789
2.966363 0.036405 -1.065113
3.007743 0.036912 -1.065178
3.049318 0.023388 -1.064901
2.845396 -0.034920 -1.063930
2.960926 -0.009084 -1.063086
3.041841 -0.009332 -1.062263
2.920551 0.008960 -1.062998
3.038794 0.037293 -1.061274
3.049648 0.065504 -1.065230
2.849083 0.083062 -1.065681
3.007496 0.092298 -1.065511
2.848016 0.087404 -1.065331
2.923907 0.049342 -1.064366
2.885945 0.070846 -1.065002
2.846626 0.069881 -1.064630
2.885456 0.088553 -1.065002
2.924021 0.085246 -1.064709
2.923887 0.089732 -1.064708
2.842582 0.109065 -1.063580
2.962871 0.072734 -1.064100
3.043770 0.074720 -1.063252
2.997269 0.087382 -1.061840
3.039534 0.051293 -1.061604
3.112736 -0.413038 -1.065893
3.080848 -0.260546 -1.064608
3.119111 -0.336219 -1.064929
3.121131 -0.307404 -1.064607
3.120998 -0.278413 -1.063643
3.122999 -0.317266 -1.065572
3.123190 -0.264127 -1.063964
3.124134 -0.264207 -1.064286
3.127204 -0.249978 -1.064929
3.105349 -0.373340 -1.061714
3.105477 -0.387861 -1.062357
3.098960 -0.416049 -1.061393
3.193717 -0.398882 -1.061312
3.104408 -0.373227 -1.061393
3.122864 -0.244811 -1.063321
3.158470 -0.350268 -1.063288
3.198920 -0.354754 -1.061312
3.086981 -0.218189 -1.065584
3.118982 -0.220451 -1.061393
3.123743 -0.206345 -1.062679
3.127735 -0.230715 -1.064607
3.125594 -0.220918 -1.063643
3.128142 -0.196999 -1.063964
3.127401 -0.177694 -1.063321
3.127401 -0.177694 -1.063321
3.130768 -0.168251 -1.064286
3.167035 -0.179946 -1.061384
3.088351 -0.146972 -1.064608
3.089387 -0.123281 -1.064608
3.087497 -0.123205 -1.063956
3.086160 -0.132637 -1.063631
3.135525 -0.149217 -1.065572
3.131846 -0.124975 -1.063964
3.129556 -0.134502 -1.063322
3.129556 -0.134502 -1.063322
3.129954 -0.124900 -1.063321
3.093226 -0.094929 -1.065584
3.090795 -0.080619 -1.064608
3.088777 -0.037907 -1.063631
3.082830 -0.094610 -1.062003
3.081580 -0.104035 -1.061677
3.130536 -0.009604 -1.062679
3.130536 -0.009604 -1.062679
3.133893 -0.052886 -1.063964
3.132209 -0.038440 -1.063322
3.125292 -0.095913 -1.061393
3.127619 -0.023989 -1.061714
3.128642 0.009599 -1.062036
3.137502 -0.062576 -1.065250
3.137165 0.009625 -1.064929
3.272570 0.010040 -1.063327
3.174024 0.009738 -1.062018
3.221364 0.009883 -1.062251
3.087973 0.023685 -1.063305
3.091613 0.037942 -1.064608
3.173800 0.038950 -1.062019
3.086679 0.052089 -1.062980
3.128212 0.052790 -1.062036
3.093024 0.066435 -1.065259
3.090914 0.075878 -1.064608
3.134281 0.110628 -1.064607
3.133616 0.067307 -1.063964
3.126239 0.095942 -1.061714
3.183119 0.092800 -1.065509
3.226656 0.094069 -1.064444
3.231583 0.039659 -1.065696
3.225559 0.098990 -1.064130
3.224434 0.069258 -1.063504
3.222308 0.079103 -1.062878
3.267584 0.040101 -1.061782
3.266414 0.055122 -1.061473
3.270880 0.070255 -1.063018
3.276354 0.080430 -1.064872
3.037120 0.009318 -1.060614
3.081213 -0.037814 -1.061026
2.991024 0.105572 -1.059837
2.868755 0.110069 -1.059118
3.057971 -0.339123 -1.059399
3.076486 0.037756 -1.059399
3.076703 0.009439 -1.059398
3.074812 0.009433 -1.058747
2.947083 0.063301 -1.058355
3.071553 -0.051834 -1.057771
3.072921 -0.009428 -1.058096
3.065880 -0.051738 -1.055817
3.094268 -0.400931 -1.059143
3.102065 -0.344013 -1.059464
3.095141 -0.386570 -1.058821
3.096134 -0.362599 -1.058179
3.100281 -0.334189 -1.058500
3.109822 -0.306291 -1.060750
3.118074 -0.205971 -1.060750
3.103657 -0.291268 -1.058178
3.111164 -0.162411 -1.057536
3.120251 -0.105341 -1.059786
3.119074 -0.081357 -1.059143
3.119074 -0.081357 -1.059143
3.119195 0.076572 -1.059143
3.119900 0.038289 -1.059143
3.122884 0.023953 -1.060107
3.123478 0.052710 -1.060429
3.113063 -0.052534 -1.056893
3.117059 -0.038254 -1.058179
3.108782 0.076316 -1.055607
3.142133 -0.367987 -1.058528
3.144756 -0.378078 -1.059797
3.132359 -0.415642 -1.057259
3.129808 -0.390900 -1.055355
3.144444 -0.338950 -1.058211
3.142558 -0.338747 -1.057576
3.154012 -0.320416 -1.060749
3.140824 -0.309344 -1.055990
3.151656 -0.295773 -1.059163
3.154037 -0.310645 -1.060432
3.156377 -0.296216 -1.060749
3.144095 -0.251328 -1.055355
3.141961 -0.265715 -1.055038
3.151095 -0.281098 -1.058528
3.151095 -0.247024 -1.057576
3.155484 -0.096839 -1.056307
3.156520 0.053268 -1.056307
3.157080 -0.266993 -1.060115
3.159688 -0.082416 -1.057576
3.160465 -0.223383 -1.060115
3.161200 -0.165023 -1.059163
3.160690 -0.135840 -1.058528
3.160134 -0.063027 -1.057576
3.164194 -0.179784 -1.060432
3.168673 -0.126445 -1.061067
3.161890 -0.169923 -1.059480
3.162754 -0.106776 -1.058845
3.162532 -0.082490 -1.058528
3.168754 0.097247 -1.060749
3.169515 0.068078 -1.060749
3.170007 -0.038904 -1.060749
3.167395 0.077755 -1.060115
3.167898 0.053460 -1.060115
3.168847 -0.053476 -1.060432
3.169283 -0.009723 -1.060432
3.164318 -0.038834 -1.058845
3.162566 0.024257 -1.058211
3.163603 0.077662 -1.058845
3.162421 0.038811 -1.058211
3.160670 -0.024243 -1.057576
3.157468 -0.053284 -1.056624
3.156955 -0.009685 -1.056307
3.177818 -0.372166 -1.055049
3.181376 -0.382480 -1.056615
3.181376 -0.382480 -1.056615
3.187718 -0.343615 -1.057241
3.194201 -0.354230 -1.059746
3.190746 -0.314261 -1.057241
3.196341 -0.285134 -1.058180
3.200668 -0.300373 -1.060059
3.195989 -0.255477 -1.057241
3.195363 -0.225850 -1.056301
3.194474 -0.211017 -1.055675
3.194384 -0.181499 -1.055049
3.199153 -0.226118 -1.057554
3.198444 -0.235931 -1.057554
3.199668 -0.171953 -1.056615
3.199398 -0.083452 -1.055362
3.200245 0.039275 -1.055362
3.200980 -0.054018 -1.055675
3.209323 -0.202111 -1.060372
3.210791 -0.083749 -1.059120
3.212257 -0.167688 -1.060686
3.212193 -0.064065 -1.059433
3.215662 0.078940 -1.060686
3.215666 0.009866 -1.060372
3.216173 -0.054274 -1.060686
3.207023 -0.137831 -1.058494
3.207430 -0.127991 -1.058493
3.209741 -0.039391 -1.058493
3.211426 0.054194 -1.059120
3.203866 -0.182038 -1.058180
3.202686 -0.127802 -1.056928
3.208792 -0.039380 -1.058180
3.207040 -0.024598 -1.057554
3.240357 -0.359349 -1.059310
3.241444 -0.349406 -1.059310
3.243119 -0.304357 -1.058383
3.251751 -0.259934 -1.059928
3.251040 -0.169713 -1.057765
3.255921 -0.184996 -1.059619
3.258436 -0.155067 -1.059928
3.229590 -0.378229 -1.056529
3.236490 -0.303734 -1.056220
3.233165 -0.318439 -1.055602
3.238201 -0.273854 -1.055911
3.240006 -0.238997 -1.055602
3.245077 -0.174394 -1.055911
3.245813 -0.139498 -1.055602
3.241436 -0.204134 -1.055293
3.239846 -0.214015 -1.054984
3.246330 -0.099627 -1.055293
3.246754 -0.084687 -1.055293
3.253409 -0.084861 -1.057456
3.297547 -0.101199 -1.056050
3.254500 -0.009985 -1.057456
3.260927 -0.040020 -1.059619
3.259255 -0.009999 -1.059001
3.247763 -0.024911 -1.055293
3.346577 -0.010267 -1.055176
3.255451 0.009988 -1.057765
3.252368 0.039915 -1.056838
3.260709 0.055026 -1.059619
3.245929 0.079683 -1.054984
3.250281 0.094758 -1.056529
3.263441 0.100153 -1.060855
3.263930 0.025035 -1.060546
3.296145 0.025282 -1.055135
2.833342 0.147908 -1.074919
2.831698 0.160892 -1.074564
2.870462 0.136603 -1.074436
2.869083 0.163017 -1.074436
2.865625 0.202544 -1.074086
2.859638 0.127296 -1.070234
2.856256 0.215096 -1.070934
2.863722 0.189169 -1.073035
2.842226 0.187749 -1.064980
2.851095 0.148835 -1.067432
2.852250 0.162060 -1.068132
2.853344 0.175299 -1.068833
2.849741 0.201421 -1.068132
2.845311 0.223053 -1.067082
2.879599 0.216854 -1.065348
2.881726 0.225907 -1.066386
2.907917 0.138386 -1.074001
2.901836 0.164878 -1.072270
2.899963 0.164771 -1.071578
2.903005 0.191764 -1.073309
2.900196 0.191578 -1.072271
2.900220 0.204989 -1.072616
2.897301 0.177999 -1.070886
2.895540 0.204658 -1.070886
2.890385 0.150886 -1.067771
2.895206 0.128880 -1.069155
2.925978 0.152744 -1.066419
2.919858 0.206377 -1.065392
2.922369 0.130089 -1.064708
2.921431 0.130047 -1.064366
2.917003 0.219671 -1.064708
2.930368 0.229720 -1.069839
2.933485 0.153136 -1.069155
2.932749 0.166634 -1.069155
2.930873 0.166527 -1.068471
2.928278 0.193433 -1.068129
2.948238 0.140305 -1.074285
2.979636 0.132638 -1.070858
2.974965 0.169033 -1.069844
2.934765 0.180301 -1.070181
2.975095 0.182779 -1.070182
2.939530 0.194177 -1.072233
2.941417 0.207901 -1.073259
2.980735 0.224470 -1.073223
2.977042 0.210419 -1.071534
2.973283 0.196406 -1.069844
2.972634 0.141466 -1.068492
2.965568 0.168499 -1.066465
2.968168 0.113884 -1.066465
2.966709 0.195972 -1.067479
2.954698 0.231628 -1.064099
2.958452 0.231922 -1.065451
2.988870 0.156027 -1.074575
2.989038 0.133056 -1.074237
3.010468 0.115507 -1.066846
3.007831 0.170900 -1.066846
3.010827 0.212807 -1.068849
3.011774 0.198949 -1.068849
3.006125 0.212474 -1.067180
3.022889 0.171756 -1.072187
3.018275 0.227297 -1.071854
3.021765 0.157744 -1.071520
3.019244 0.185491 -1.071186
3.017418 0.199322 -1.070852
3.016294 0.134270 -1.069183
3.012101 0.143344 -1.067848
3.018003 0.115796 -1.069517
3.018941 0.157597 -1.070518
3.030419 0.134899 -1.074190
3.109414 0.119303 -1.071445
3.058652 0.136155 -1.069187
3.106734 0.138296 -1.070794
3.057543 0.117313 -1.068527
3.057543 0.117313 -1.068527
3.089573 0.118542 -1.064608
3.135968 0.139597 -1.065572
3.089731 0.137539 -1.064933
3.139308 0.149397 -1.066857
3.069774 0.160250 -1.073473
3.064117 0.159955 -1.071494
3.099916 0.161824 -1.068840
3.141424 0.163991 -1.067822
3.063349 0.174054 -1.071494
3.101971 0.176249 -1.069817
3.057829 0.216129 -1.070505
3.092640 0.218589 -1.067538
3.049323 0.187339 -1.066879
3.135985 0.221653 -1.067179
3.090643 0.175605 -1.065910
3.086887 0.232464 -1.065910
3.132247 0.206907 -1.065572
3.131262 0.221319 -1.065572
3.134136 0.207032 -1.066214
3.133166 0.192490 -1.065572
3.130237 0.177855 -1.064286
3.131182 0.177909 -1.064607
3.041739 0.229064 -1.065230
3.043718 0.201059 -1.065230
3.086066 0.203856 -1.064933
3.145282 0.120679 -1.068464
3.147099 0.164287 -1.069750
3.146374 0.140060 -1.069107
3.191967 0.112664 -1.068682
3.280633 0.125872 -1.066726
3.277202 0.115673 -1.065490
3.176353 0.165814 -1.064240
3.222690 0.168233 -1.064130
3.272885 0.170853 -1.064872
3.235223 0.198760 -1.068828
3.272123 0.201027 -1.065181
3.175653 0.209774 -1.064874
3.270164 0.185805 -1.064254
3.176546 0.224520 -1.065509
3.227641 0.213208 -1.066636
3.223850 0.212958 -1.065383
3.219994 0.227591 -1.064443
3.271163 0.216083 -1.065181
3.270134 0.231135 -1.065181
2.847249 0.276020 -1.069533
2.848922 0.236532 -1.068833
2.853404 0.289878 -1.072335
2.842725 0.302016 -1.068833
2.892346 0.266963 -1.071578
2.890478 0.266790 -1.070886
2.838285 0.341232 -1.068833
2.841312 0.377022 -1.071634
2.850597 0.378254 -1.075136
2.838957 0.319244 -1.068132
2.840723 0.275388 -1.067082
2.871256 0.372035 -1.068117
2.879056 0.305876 -1.068117
2.881749 0.279365 -1.068117
2.878566 0.292434 -1.067425
2.872696 0.345369 -1.067425
2.839020 0.253259 -1.065681
2.837297 0.261882 -1.065331
2.841028 0.262226 -1.066731
2.834342 0.301125 -1.065681
2.866381 0.380349 -1.066733
2.872391 0.331930 -1.066733
2.868283 0.358237 -1.066386
2.865451 0.380225 -1.066386
2.870158 0.318294 -1.065348
2.913088 0.295941 -1.065735
2.925982 0.270067 -1.069497
2.921902 0.283257 -1.068471
2.929840 0.247776 -1.070181
2.937802 0.284799 -1.074285
2.933468 0.270758 -1.072233
2.966732 0.246313 -1.068830
2.967151 0.273867 -1.069844
2.972417 0.288154 -1.072209
2.962353 0.264261 -1.067817
2.960724 0.250388 -1.066803
2.949523 0.299642 -1.064437
2.917126 0.337100 -1.068813
2.909827 0.309145 -1.065051
2.913565 0.309542 -1.066419
2.909014 0.349735 -1.066419
2.904576 0.362770 -1.065392
2.916698 0.364284 -1.069839
2.960280 0.314505 -1.068830
2.960527 0.369758 -1.071196
2.944443 0.353995 -1.064775
3.063020 0.259039 -1.073472
3.058904 0.239797 -1.071494
3.013238 0.254829 -1.070852
3.007226 0.235746 -1.068182
3.009867 0.249894 -1.069517
3.046479 0.252934 -1.067538
3.088987 0.242155 -1.066887
3.217966 0.242335 -1.064130
3.106897 0.243559 -1.073072
3.126640 0.245107 -1.064607
3.085956 0.256211 -1.066235
3.088386 0.261184 -1.067212
3.044022 0.280962 -1.067538
3.053332 0.272377 -1.070505
3.135456 0.265165 -1.068143
3.085350 0.284777 -1.066887
2.997949 0.267436 -1.065845
2.995810 0.290422 -1.065845
2.993360 0.276286 -1.064510
2.991119 0.289967 -1.064176
3.125787 0.288509 -1.065572
3.127601 0.279002 -1.065893
3.079617 0.274722 -1.064608
2.989261 0.317584 -1.064510
2.990578 0.331649 -1.065511
3.088242 0.313735 -1.068840
3.087771 0.299337 -1.068189
3.139507 0.304353 -1.070715
3.129981 0.332535 -1.068465
3.085889 0.299155 -1.067538
3.167221 0.321758 -1.065192
2.993813 0.336657 -1.066847
3.038334 0.336945 -1.067538
3.033123 0.341078 -1.065890
3.124653 0.346517 -1.067179
3.076312 0.369849 -1.066887
2.987148 0.345191 -1.064844
3.163820 0.336130 -1.064557
3.071541 0.345398 -1.064282
3.025731 0.363768 -1.064241
2.981973 0.372436 -1.064176
2.917479 0.111939 -1.062656
2.834555 0.239718 -1.063580
2.954510 0.208826 -1.063424
2.908077 0.259419 -1.062656
2.987386 0.317385 -1.063842
2.985064 0.303253 -1.062507
2.943434 0.312715 -1.062748
2.901339 0.326258 -1.062656
2.937901 0.353209 -1.062410
2.979912 0.358259 -1.062841
2.980848 0.358372 -1.063175
2.875394 0.150103 -1.062233
2.907741 0.241415 -1.061972
2.945596 0.271877 -1.062072
2.983974 0.275420 -1.061172
2.863073 0.277554 -1.061195
2.863196 0.304191 -1.062233
2.974490 0.371502 -1.061506
2.854319 0.356493 -1.061195
2.937286 0.325739 -1.061059
3.020808 0.349081 -1.061934
3.023893 0.321264 -1.061933
3.023893 0.321264 -1.061933
3.030668 0.237583 -1.061604
3.031420 0.293874 -1.063582
3.026278 0.307440 -1.062263
3.037124 0.200623 -1.062922
3.041669 0.172823 -1.063911
3.031800 0.279834 -1.063252
3.038846 0.135274 -1.062263
3.037473 0.144551 -1.061933
3.035227 0.214531 -1.062593
3.070286 0.283386 -1.061677
3.076631 0.203233 -1.061678
3.071127 0.340582 -1.063957
3.062230 0.368156 -1.062003
3.067961 0.325945 -1.062329
3.083628 0.146748 -1.062980
3.081322 0.217789 -1.063631
3.080365 0.189246 -1.062654
3.112636 0.316213 -1.062036
2.910905 0.111687 -1.060262
2.950299 0.113198 -1.060045
2.865328 0.242320 -1.060848
2.903200 0.227591 -1.059920
2.862892 0.237692 -1.059810
2.867088 0.127628 -1.058772
2.860445 0.255170 -1.059464
2.861149 0.224294 -1.058772
2.850087 0.320495 -1.058080
2.894364 0.320979 -1.059920
2.854066 0.343129 -1.060502
2.891287 0.347604 -1.059920
2.931171 0.329613 -1.059031
2.930146 0.338604 -1.059031
2.933072 0.284340 -1.058017
2.927840 0.365675 -1.059369
2.921459 0.378540 -1.057679
3.023903 0.293146 -1.060944
3.057619 0.324847 -1.058748
3.076311 0.160592 -1.060701
3.111324 0.258318 -1.059786
3.009796 0.361852 -1.058636
3.010910 0.376050 -1.059625
3.014657 0.376518 -1.060944
3.044554 0.380252 -1.056468
3.046430 0.380487 -1.057119
3.048864 0.352323 -1.056794
3.095947 0.372210 -1.058500
3.096887 0.372323 -1.058821
3.099652 0.348559 -1.058821
3.090101 0.357089 -1.055929
3.125411 0.119917 -1.061714
3.171705 0.121693 -1.062018
3.169952 0.141110 -1.061701
3.224120 0.113799 -1.063817
3.263647 0.145281 -1.061473
3.173662 0.180322 -1.063605
3.262568 0.185374 -1.061782
3.120767 0.235015 -1.062357
3.123808 0.244885 -1.063643
3.161459 0.208837 -1.060115
3.164268 0.140857 -1.059797
3.157512 0.237783 -1.059480
3.160407 0.179569 -1.059163
3.209555 0.182362 -1.060059
3.215215 0.123362 -1.060999
3.213317 0.123290 -1.060372
3.211551 0.142962 -1.060059
3.212399 0.182523 -1.060999
3.251016 0.244824 -1.059310
3.256738 0.170010 -1.059619
3.303347 0.202945 -1.059403
3.114915 0.330934 -1.063322
3.165263 0.282362 -1.063288
3.160048 0.335729 -1.063288
3.116886 0.302160 -1.063000
3.117301 0.287726 -1.062679
3.166222 0.248210 -1.062653
3.152622 0.305624 -1.059797
3.155595 0.261993 -1.059480
3.157772 0.291461 -1.061067
3.158969 0.267153 -1.060749
3.148346 0.363819 -1.060432
3.146620 0.353841 -1.059480
3.142872 0.377851 -1.059163
3.201816 0.265831 -1.059433
3.203005 0.251093 -1.059433
3.210580 0.251687 -1.061938
3.209636 0.296248 -1.062878
3.199574 0.339928 -1.060999
3.191593 0.368817 -1.059433
3.208239 0.311016 -1.062878
3.203939 0.325489 -1.061938
3.259731 0.255540 -1.062400
3.253782 0.270145 -1.060855
3.256840 0.300605 -1.062709
3.257315 0.315773 -1.063327
3.300525 0.350653 -1.062452
3.307828 0.249102 -1.061842
3.206567 0.167391 -1.058807
3.158601 0.194053 -1.058846
3.206807 0.142750 -1.058493
3.154789 0.222982 -1.058211
3.158137 0.150293 -1.057894
3.157412 0.164825 -1.057894
3.250836 0.154705 -1.057456
3.199714 0.152272 -1.056301
3.195363 0.225850 -1.056301
3.239776 0.228989 -1.055293
3.243695 0.144392 -1.054984
3.301544 0.146968 -1.057879
3.303447 0.147052 -1.058489
3.345085 0.128345 -1.055477
3.297467 0.172137 -1.056964
3.342042 0.174464 -1.055176
3.352519 0.175011 -1.058484
3.293787 0.187147 -1.056050
3.294737 0.187201 -1.056354
3.342156 0.189896 -1.055477
3.294689 0.232870 -1.057269
3.340295 0.205215 -1.055177
3.344061 0.190004 -1.056078
3.345875 0.236488 -1.057582
3.392489 0.192756 -1.055095
3.395350 0.192918 -1.055984
3.396289 0.224349 -1.056874
3.249302 0.254723 -1.059001
3.194780 0.270182 -1.057241
3.295380 0.273599 -1.058488
3.290211 0.278252 -1.056964
3.145422 0.246579 -1.055672
3.289008 0.257835 -1.056050
3.295537 0.293983 -1.059098
3.244529 0.299469 -1.058692
3.146441 0.290415 -1.057259
3.147902 0.305166 -1.058211
3.190722 0.294503 -1.056614
3.232703 0.313387 -1.055293
3.282290 0.302954 -1.055135
3.144332 0.348700 -1.058528
3.185159 0.358174 -1.056928
3.232056 0.373493 -1.057147
3.135340 0.376946 -1.056624
3.228736 0.343026 -1.054984
3.289393 0.318883 -1.057879
3.291289 0.319067 -1.058488
3.330709 0.353860 -1.056079
3.280128 0.379048 -1.056964
3.332837 0.369605 -1.057281
2.846042 0.390986 -1.074086
2.832315 0.469105 -1.073385
2.837595 0.429819 -1.073035
2.865852 0.398188 -1.067425
2.866315 0.434169 -1.069501
2.856871 0.446197 -1.066733
2.851871 0.499354 -1.068117
2.851389 0.512805 -1.068809
2.903641 0.508419 -1.072917
2.899013 0.507608 -1.071207
2.906343 0.426560 -1.069155
2.905434 0.385531 -1.066761
2.895539 0.465896 -1.067445
2.899905 0.398386 -1.065393
2.859953 0.392897 -1.065002
2.896119 0.384295 -1.063340
2.853431 0.418794 -1.063964
2.854359 0.418930 -1.064310
2.890413 0.437819 -1.064024
2.849230 0.458445 -1.064656
2.844478 0.498060 -1.065348
2.845068 0.489172 -1.065002
2.882960 0.495687 -1.064708
2.888116 0.464702 -1.064709
2.851917 0.409638 -1.062925
2.887175 0.414702 -1.061630
2.887191 0.401153 -1.060946
2.846835 0.431218 -1.062233
2.885889 0.423558 -1.061630
2.841820 0.457253 -1.061887
2.836909 0.469866 -1.060849
2.837834 0.470019 -1.061195
2.881869 0.450101 -1.061630
2.878531 0.476759 -1.061972
2.911006 0.509708 -1.061059
3.062463 0.396810 -1.063305
3.109294 0.402878 -1.064286
2.977178 0.409001 -1.064176
2.981216 0.414217 -1.065845
3.015421 0.414255 -1.062922
2.972747 0.426993 -1.063509
2.929038 0.406967 -1.061734
3.053709 0.419515 -1.061352
3.098656 0.411170 -1.061072
2.969684 0.394056 -1.060838
3.007215 0.431944 -1.060944
3.052795 0.405085 -1.060375
3.054670 0.405333 -1.061026
2.931053 0.457783 -1.065113
3.016151 0.442676 -1.064571
3.053236 0.462483 -1.063305
2.921482 0.470070 -1.062410
2.923058 0.511819 -1.065451
2.928573 0.485048 -1.065789
2.929252 0.503646 -1.067141
2.921144 0.483817 -1.063086
2.957312 0.489808 -1.061506
2.996935 0.515283 -1.061933
2.835749 0.550511 -1.065694
2.837331 0.537281 -1.065348
2.841018 0.537980 -1.066733
2.848774 0.562115 -1.071232
2.864396 0.565197 -1.062656
2.832455 0.586029 -1.067079
2.858152 0.591346 -1.062314
2.851722 0.594579 -1.060262
2.851670 0.617428 -1.061972
2.872340 0.543911 -1.064024
2.873496 0.557839 -1.065393
2.878803 0.545135 -1.066419
2.879031 0.558914 -1.067445
2.876299 0.517285 -1.063682
2.888322 0.519447 -1.068129
2.908315 0.550723 -1.062748
2.902263 0.614414 -1.065113
2.905982 0.601242 -1.065451
2.905950 0.587303 -1.064438
2.904105 0.586930 -1.063762
2.894921 0.603586 -1.061734
2.846759 0.685294 -1.065735
2.839596 0.706654 -1.065051
2.865889 0.755361 -1.064100
2.830546 0.998116 -1.062841
2.891891 0.640083 -1.063424
2.847700 0.644063 -1.062656
2.846046 0.629935 -1.060946
2.875450 0.678217 -1.060721
2.901863 0.736348 -1.060170
2.893269 1.060330 -1.061026
2.957321 0.517818 -1.063175
2.920671 0.525265 -1.065451
2.922524 0.525598 -1.066127
2.916638 0.552299 -1.065789
2.919148 0.538871 -1.065789
2.921457 0.567150 -1.068493
2.948337 0.614723 -1.066513
2.913141 0.565536 -1.065451
2.935244 0.635523 -1.063509
2.985273 0.603335 -1.063582
2.965639 0.685098 -1.062922
2.981572 0.602587 -1.062263
3.036512 0.546098 -1.062329
2.944513 0.571626 -1.062173
2.934448 0.621228 -1.062173
2.989458 0.551850 -1.061604
2.976894 0.620677 -1.061933
2.938194 0.593820 -1.061506
2.944334 0.557544 -1.061172
2.941737 0.571087 -1.061172
2.978756 0.587763 -1.060285
2.969278 0.642892 -1.060944
2.988249 0.537419 -1.060285
3.031177 0.559551 -1.061352
3.067599 0.595521 -1.060750
2.913160 0.418435 -1.056665
2.911862 0.427370 -1.056665
2.917449 0.428190 -1.058693
2.922150 0.387749 -1.058355
2.950904 0.433100 -1.056165
2.958727 0.383369 -1.056499
3.002593 0.389053 -1.057318
3.005129 0.398760 -1.058636
2.961274 0.392940 -1.057834
3.001385 0.398263 -1.057318
2.959298 0.434332 -1.059169
2.999820 0.416801 -1.057647
2.956107 0.461696 -1.059503
2.957268 0.447946 -1.059169
2.958200 0.448087 -1.059503
2.998213 0.454148 -1.058966
3.001014 0.454572 -1.059955
2.992799 0.439249 -1.056329
2.908934 0.440625 -1.056327
2.872041 0.475685 -1.059578
2.908473 0.467977 -1.057679
2.951159 0.474845 -1.058501
2.989562 0.466921 -1.056658
2.943713 0.473647 -1.055831
2.984586 0.480224 -1.055669
2.949872 0.488575 -1.058835
2.854396 0.576884 -1.059920
2.834220 0.613650 -1.055474
2.841611 0.601574 -1.057184
2.862799 0.528469 -1.059578
2.893848 0.571009 -1.059031
2.873649 0.622187 -1.055652
2.932037 0.541250 -1.055831
2.928954 0.591952 -1.058168
2.935347 0.579197 -1.059503
2.943774 0.529420 -1.059169
2.941918 0.529086 -1.058501
2.940608 0.514892 -1.057166
2.970351 0.576642 -1.056658
2.976170 0.535246 -1.055999
2.971117 0.562615 -1.055999
2.971117 0.562615 -1.055999
2.975812 0.521056 -1.055010
3.012036 0.608744 -1.058096
2.982344 0.493954 -1.055669
3.045041 0.446916 -1.059724
3.047334 0.437707 -1.060050
3.041082 0.460642 -1.059073
3.042235 0.446505 -1.058748
3.095840 0.410796 -1.060107
3.088288 0.424266 -1.058179
3.189948 0.398411 -1.060059
3.229425 0.403342 -1.057456
3.230369 0.403460 -1.057765
3.232192 0.388589 -1.057765
3.132631 0.391253 -1.056307
3.131690 0.391135 -1.055990
3.085745 0.385397 -1.055607
3.223693 0.387568 -1.054984
3.130478 0.415393 -1.056624
3.039951 0.422377 -1.056794
3.077190 0.441995 -1.055286
3.079192 0.427830 -1.055286
3.123021 0.448578 -1.055672
3.120692 0.458020 -1.055355
3.030702 0.501963 -1.057771
3.020372 0.595974 -1.060050
3.032046 0.487860 -1.057445
3.016039 0.542416 -1.055166
3.062970 0.604380 -1.059786
3.063117 0.536343 -1.055607
3.069414 0.527745 -1.057214
3.070868 0.552277 -1.059143
3.084945 0.467286 -1.059143
3.126052 0.473512 -1.057894
3.164390 0.479319 -1.055362
3.168283 0.509781 -1.058180
3.100042 0.601819 -1.056624
3.102778 0.587547 -1.056624
2.842325 0.633687 -1.059920
2.863988 0.717391 -1.060045
2.857490 0.739101 -1.059707
2.835995 0.817709 -1.059706
2.844308 0.791825 -1.060045
2.857266 0.890730 -1.059837
2.835091 0.817449 -1.059369
2.832505 0.668087 -1.059236
2.842400 1.056550 -1.058966
2.885607 0.624776 -1.060045
2.906685 0.709161 -1.059503
2.915169 0.673438 -1.059503
2.969434 0.628634 -1.059955
3.045117 0.688712 -1.059786
2.932909 0.777839 -1.059626
2.899125 0.889162 -1.058966
2.903023 0.708268 -1.058168
2.922346 0.632730 -1.058835
2.836808 0.941984 -1.058501
2.876800 0.815154 -1.058835
3.008156 0.636832 -1.058747
2.938347 0.745605 -1.058636
2.992175 0.877675 -1.058500
2.858602 0.867147 -1.057834
2.862849 0.698466 -1.058017
2.866462 0.840801 -1.057834
2.896793 0.725609 -1.057500
2.892055 0.748041 -1.057834
2.907100 0.852721 -1.057977
2.882979 0.927944 -1.057647
2.947752 0.695270 -1.057647
3.000321 0.664082 -1.058096
2.933057 0.758647 -1.057977
2.938789 0.736128 -1.057977
2.839751 0.776493 -1.057003
2.832484 0.802597 -1.057003
2.834933 0.793903 -1.057003
2.839751 0.776493 -1.057003
2.833946 0.926576 -1.055831
2.843252 0.900738 -1.056165
2.836595 1.039560 -1.055010
2.850200 0.737216 -1.057003
2.855951 0.710725 -1.056665
2.859192 0.697574 -1.056665
2.856743 0.687698 -1.054976
2.850521 0.874255 -1.055831
2.862737 0.965243 -1.055010
2.873452 0.640627 -1.057003
2.872391 0.649647 -1.057341
2.866290 0.676056 -1.057341
2.865703 0.662011 -1.055990
2.905066 0.671105 -1.055831
2.904699 0.685115 -1.056832
2.885847 0.760622 -1.056832
2.864517 0.980547 -1.057318
2.890496 0.901089 -1.057318
2.864866 0.826034 -1.055831
2.880018 0.912386 -1.055010
2.894671 1.005775 -1.055166
2.892661 1.136261 -1.054964
2.959128 0.640694 -1.057318
2.955227 0.654101 -1.056988
2.946321 0.680635 -1.055999
3.000840 0.625670 -1.055492
2.995028 0.648467 -1.055166
2.983505 0.703703 -1.055492
3.035311 0.671827 -1.055286
2.939014 0.707503 -1.055669
2.937747 0.716740 -1.055999
3.025192 0.728248 -1.056250
3.022024 0.737301 -1.055928
3.025746 0.713666 -1.055286
3.018599 0.751200 -1.055928
2.929400 0.757701 -1.056658
2.961428 0.795136 -1.055817
2.964768 0.786289 -1.056143
2.444001 1.409379 -1.054824
2.468191 1.438505 -1.053926
2.466658 1.422444 -1.050465
2.458884 1.748725 -1.053691
2.470281 1.656076 -1.053161
2.473413 1.658176 -1.054496
2.473949 1.642084 -1.051491
2.481238 1.713540 -1.053032
2.476424 1.727100 -1.054350
2.492613 1.391915 -1.053234
2.491242 1.545623 -1.052610
2.499539 1.451642 -1.052054
2.508525 1.599309 -1.053494
2.511872 1.585233 -1.051825
2.503089 1.678070 -1.052372
2.509999 1.666011 -1.052043
2.513004 1.735477 -1.051585
2.492213 1.687455 -1.051054
2.494167 1.367794 -1.049427
2.501113 1.744319 -1.049957
2.502664 1.745401 -1.050608
2.506780 1.731179 -1.048980
2.473771 1.805430 -1.054515
2.462274 1.885372 -1.052714
2.473637 1.864151 -1.051428
2.454019 1.808381 -1.049632
2.476026 1.778130 -1.049632
2.449721 1.811019 -1.048980
2.455441 1.792052 -1.046701
2.457496 1.869781 -1.048214
2.456702 1.953876 -1.050278
2.460413 1.956827 -1.051865
2.464779 2.073929 -1.046640
2.465762 1.998405 -1.046593
2.474840 1.993214 -1.047846
2.478190 1.915714 -1.048057
2.467853 1.925931 -1.047422
2.482820 1.794580 -1.054841
2.489019 1.857846 -1.054321
2.491888 1.772197 -1.052887
2.491888 1.772197 -1.052887
2.484132 1.778182 -1.051911
2.492748 1.836921 -1.051107
2.483075 1.835676 -1.048214
2.493527 1.819848 -1.047892
2.488486 1.905442 -1.048692
2.495056 1.820964 -1.048535
2.496151 1.757988 -1.051260
2.502068 1.971227 -1.050351
2.513342 1.942888 -1.047533
2.512591 1.942307 -1.047220
2.505104 1.799012 -1.046928
2.456243 1.851043 -1.044035
2.454494 1.933746 -1.045519
2.455143 1.916012 -1.042028
2.461684 1.902954 -1.041076
2.455940 2.002959 -1.045027
2.452309 2.082787 -1.045404
2.462304 2.211148 -1.043449
2.478848 1.971488 -1.044401
2.465305 1.979308 -1.042522
2.467470 2.121862 -1.041721
2.473495 2.042677 -1.042314
2.474388 1.967942 -1.042522
2.442822 2.140089 -1.039587
2.443538 2.140716 -1.039892
2.441962 2.275455 -1.036413
2.442769 2.361692 -1.038797
2.452160 2.050495 -1.038606
2.448041 2.059845 -1.039533
2.450145 2.120074 -1.037148
2.451586 2.121320 -1.037758
2.452921 2.349764 -1.038504
2.463768 2.041008 -1.039533
2.472458 2.099900 -1.038368
2.458915 2.187748 -1.037735
2.465620 2.255462 -1.037599
2.456581 2.261075 -1.036709
2.472371 2.405030 -1.038083
2.499134 1.950343 -1.045341
2.486018 1.891482 -1.045201
2.494968 1.803361 -1.044999
2.514716 1.925527 -1.044401
2.515886 2.000946 -1.044477
2.489395 1.876026 -1.042980
2.490909 1.877168 -1.043615
2.508843 1.854726 -1.043932
2.500282 1.866252 -1.043932
2.505168 2.011312 -1.043859
2.479980 1.886889 -1.042663
2.489401 1.942747 -1.041269
2.484509 2.026259 -1.041696
2.484064 2.013238 -1.038915
2.480824 2.023254 -1.040151
2.496311 1.786900 -1.042107
2.507869 1.848063 -1.042346
2.513809 1.912627 -1.041582
2.488654 2.094018 -1.041111
2.490112 2.095245 -1.041721
2.492875 2.084540 -1.040197
2.486633 2.118513 -1.045684
2.514766 2.142481 -1.041645
2.513839 2.050180 -1.038368
2.498041 2.069401 -1.038368
2.499010 2.063747 -1.037453
2.510887 2.047772 -1.037148
2.507145 2.129360 -1.037134
2.480718 2.234567 -1.036709
2.485999 2.151097 -1.036533
2.486383 2.178251 -1.042246
2.486287 2.338226 -1.043474
2.503657 2.227556 -1.040564
2.498663 2.223113 -1.038488
2.496933 2.242244 -1.042047
2.540404 1.220652 -1.053774
2.538481 1.474259 -1.053962
2.536759 1.557742 -1.054162
2.545512 1.547030 -1.054829
2.546562 1.381322 -1.054448
2.551657 1.610341 -1.053691
2.566340 1.592216 -1.054680
2.557909 1.267932 -1.053234
2.578091 1.224189 -1.052888
2.577056 1.397862 -1.052611
2.577166 1.486171 -1.053494
2.561754 1.508871 -1.052827
2.549373 1.533356 -1.053494
2.550061 1.609333 -1.053032
2.569617 1.577919 -1.053032
2.540780 1.378186 -1.052054
2.559123 1.337744 -1.051028
2.579986 1.551768 -1.051383
2.579934 1.546353 -1.050394
2.522355 1.564927 -1.051157
2.570397 1.562154 -1.050394
2.538647 1.618513 -1.051383
2.554306 1.584750 -1.049735
2.585491 1.604098 -1.047678
2.586295 1.604596 -1.048004
2.526809 1.643869 -1.052702
2.538315 1.634780 -1.054350
2.542221 1.704304 -1.053864
2.521824 1.707504 -1.048655
2.528087 1.711745 -1.051259
2.536161 1.622406 -1.051383
2.522215 1.730433 -1.053213
2.528018 1.797892 -1.053035
2.543682 1.774007 -1.052714
2.545585 1.757978 -1.050142
2.525426 1.778606 -1.048535
2.518758 1.791307 -1.049178
2.533585 1.766965 -1.048535
2.546282 1.746945 -1.048214
2.537014 1.752059 -1.046607
2.563130 1.667499 -1.052887
2.570776 1.655686 -1.052887
2.575047 1.647281 -1.052562
2.580872 1.799945 -1.052817
2.585906 1.631955 -1.052887
2.586705 1.632459 -1.053213
2.554838 1.673282 -1.051585
2.573545 1.725304 -1.051750
2.574331 1.725831 -1.052071
2.583035 1.714490 -1.052392
2.556789 1.663374 -1.050283
2.569598 1.638246 -1.049306
2.559305 1.732882 -1.049178
2.558521 1.732351 -1.048857
2.580544 1.782121 -1.049326
2.565315 1.789095 -1.046471
2.568059 1.773498 -1.044249
2.584167 1.664310 -1.043392
2.530901 1.847124 -1.048374
2.530169 1.906754 -1.044714
2.531686 1.907897 -1.045341
2.526658 1.922403 -1.046906
2.537769 1.816576 -1.044250
2.538561 1.852715 -1.051547
2.539374 1.835458 -1.048374
2.547195 1.811530 -1.045836
2.560156 1.803066 -1.047740
2.577745 1.845192 -1.045341
2.574141 1.848590 -1.045027
2.559119 1.867719 -1.044714
2.559886 1.868279 -1.045027
2.557378 1.884547 -1.047533
2.568230 1.898630 -1.053170
2.573794 1.921124 -1.043550
2.523329 2.006866 -1.047567
2.517634 2.027680 -1.050349
2.573281 1.939244 -1.046949
2.571002 1.937526 -1.046022
2.534945 1.978291 -1.044786
2.525068 1.989347 -1.044477
2.541765 1.964859 -1.043859
2.554490 1.943579 -1.042932
2.577745 1.992673 -1.042941
2.573256 2.085525 -1.044351
2.540465 2.046068 -1.044160
2.569299 2.005100 -1.043245
2.570800 2.006272 -1.043855
2.539467 1.806034 -1.042663
2.553733 1.943003 -1.042623
2.537251 1.961369 -1.042005
2.546250 1.949672 -1.042005
2.527277 1.814936 -1.041076
2.556912 1.848134 -1.040330
2.528262 1.887137 -1.040330
2.548499 2.026884 -1.042331
2.572214 2.071638 -1.041344
2.519950 2.207659 -1.040268
2.553311 2.011599 -1.040502
2.581145 2.052848 -1.039840
2.529257 2.114963 -1.039540
2.522027 2.122098 -1.039239
2.531282 2.190280 -1.039378
2.519950 1.966588 -1.038606
2.520567 2.120870 -1.038638
2.536759 2.101475 -1.038638
2.528005 2.029647 -1.037758
2.534889 2.255344 -1.037335
2.567950 1.985101 -1.038977
2.580826 1.963616 -1.038063
2.573277 1.970367 -1.037453
2.575920 2.048693 -1.037735
2.552803 2.081957 -1.038638
2.553542 2.082560 -1.038938
2.555433 2.150207 -1.037006
2.553552 2.237096 -1.037919
2.596521 1.287071 -1.054790
2.600457 1.279099 -1.054790
2.603639 1.064452 -1.051673
2.603040 1.078214 -1.053424
2.588438 1.388658 -1.054638
2.590853 1.446774 -1.050824
2.593969 1.376290 -1.054300
2.600729 1.452289 -1.054829
2.611726 1.416669 -1.052159
2.594401 1.544225 -1.054350
2.599040 1.530832 -1.053361
2.604262 1.694258 -1.054643
2.608155 1.601583 -1.053864
2.606873 1.519331 -1.053691
2.612201 1.506375 -1.053032
2.611596 1.670662 -1.052393
2.588722 1.540845 -1.052043
2.590106 1.702064 -1.052071
2.591474 1.777950 -1.051547
2.604302 1.512485 -1.051713
2.600962 1.922828 -1.050967
2.589546 1.696014 -1.050786
2.614682 1.572637 -1.050608
2.602569 1.581707 -1.048655
2.596069 1.594162 -1.048980
2.605135 1.237031 -1.049660
2.606547 1.223033 -1.047949
2.591562 1.685996 -1.049500
2.604901 1.746325 -1.049326
2.603326 1.745269 -1.048692
2.611879 1.821569 -1.050038
2.609750 1.732221 -1.048057
2.590360 1.842229 -1.048159
2.613751 1.889217 -1.047876
2.606426 1.817767 -1.047846
2.587264 1.840027 -1.046906
2.589770 1.753509 -1.046471
2.592911 1.755636 -1.047740
2.593956 1.911501 -1.046949
2.600420 1.897862 -1.046022
2.600533 1.978610 -1.045989
2.608985 1.646520 -1.047250
2.612538 2.130674 -1.046791
2.613322 1.632490 -1.045964
2.607384 1.645509 -1.046607
2.645452 0.969509 -1.053424
2.631815 1.005938 -1.053424
2.619900 1.313714 -1.052273
2.634918 1.201995 -1.054106
2.626143 1.487691 -1.054021
2.629651 1.395222 -1.054162
2.618286 1.493870 -1.052702
2.623822 1.392129 -1.051825
2.630275 1.468788 -1.052043
2.641965 1.459407 -1.054021
2.646430 1.451295 -1.054021
2.648932 1.436850 -1.052372
2.638152 1.446755 -1.050724
2.620200 1.479020 -1.050724
2.622033 1.464185 -1.048746
2.637758 1.353192 -1.049822
2.643958 1.341039 -1.049822
2.646730 1.327167 -1.048487
2.650368 1.406214 -1.047757
2.644105 1.497867 -1.046376
2.648046 1.494739 -1.047027
2.621892 1.560588 -1.050608
2.618642 1.558654 -1.049306
2.627635 1.574944 -1.054841
2.629861 1.548986 -1.050934
2.632802 1.633451 -1.051750
2.624034 1.724360 -1.050596
2.620813 1.705026 -1.046153
2.624289 1.866359 -1.046331
2.617777 1.873847 -1.046022
2.630489 1.870768 -1.048803
2.633014 1.684363 -1.045836
2.637778 1.537343 -1.051260
2.637680 1.531870 -1.050283
2.641548 1.523298 -1.049957
2.647282 1.526605 -1.052236
2.649421 1.593531 -1.049500
2.637063 1.619335 -1.050464
2.642869 1.606199 -1.049821
2.639593 1.682872 -1.047422
2.649804 1.829952 -1.046331
2.660683 0.938218 -1.054825
2.659228 1.247752 -1.054638
2.660853 1.228650 -1.052273
2.670760 1.218345 -1.053962
2.652870 1.407541 -1.048746
2.666477 1.393861 -1.050724
2.668752 1.297473 -1.050824
2.664875 1.382631 -1.048416
2.675531 1.093843 -1.052054
2.678501 1.066391 -1.049317
2.682539 1.360608 -1.050394
2.682129 1.375955 -1.052702
2.685572 0.864404 -1.054824
2.683809 1.376816 -1.053361
2.651594 1.480693 -1.045725
2.655516 1.424644 -1.052372
2.668312 1.473961 -1.049632
2.659024 1.484841 -1.048655
2.651319 1.673237 -1.049009
2.655099 1.580353 -1.048857
2.657548 1.592873 -1.051750
2.659896 1.566676 -1.047892
2.666804 1.637598 -1.047105
2.666777 1.717514 -1.045967
2.675694 1.643057 -1.050596
2.679124 1.544967 -1.049821
2.685687 1.548751 -1.052393
2.668676 1.463494 -1.048004
2.668714 1.555373 -1.048535
2.676214 1.451649 -1.048329
2.682916 1.530745 -1.048535
2.672058 1.449394 -1.046702
2.682472 1.692897 -1.045967
2.686633 1.516520 -1.047249
2.701620 1.148292 -1.053962
2.704936 1.233935 -1.052827
2.715393 1.304733 -1.052043
2.693484 1.366159 -1.054680
2.723207 1.397028 -1.053864
2.700319 1.432717 -1.052562
2.706132 1.224465 -1.051825
2.724547 1.381915 -1.051911
2.698331 1.337538 -1.051713
2.691303 1.349518 -1.051383
2.701575 1.328836 -1.051383
2.704332 1.510142 -1.051428
2.704870 1.413931 -1.050934
2.714700 1.198364 -1.050824
2.713838 1.197984 -1.050490
2.719331 1.475036 -1.050143
2.696492 1.326336 -1.049405
2.704159 1.403013 -1.048980
2.714546 1.288984 -1.049405
2.688626 1.426513 -1.048004
2.689498 1.226893 -1.046818
2.698322 1.311849 -1.047757
2.724443 1.350481 -1.047027
2.691463 1.406923 -1.045725
