# .PCD v.7 - Point Cloud Data file format
VERSION .7
FIELDS x y z
SIZE 4 4 4
TYPE F F F
COUNT 1 1 1
WIDTH 1685
HEIGHT 1
POINTS 1685
DATA ascii
1.553882 0.481796 -1.128593
1.557935 0.562836 -1.127861
1.576825 0.510203 -1.128424
1.575024 0.569009 -1.129570
1.593326 0.515542 -1.129570
1.588246 0.573786 -1.128363
1.554006 0.583073 -1.130112
1.543947 0.609211 -1.130112
1.552818 0.629289 -1.130129
1.535390 0.630467 -1.130112
1.573171 0.620742 -1.130030
1.565199 0.595504 -1.129569
1.615719 0.597760 -1.129484
1.577110 0.608359 -1.129474
1.536743 0.622774 -1.128987
1.582405 0.635634 -1.128711
1.590251 0.613428 -1.128159
1.579675 0.640173 -1.128159
1.602106 0.626486 -1.127839
1.478317 0.690885 -1.132013
1.479061 0.691233 -1.132583
1.479988 0.683385 -1.130873
1.476933 0.695767 -1.132583
1.476190 0.695417 -1.132013
1.483265 0.643920 -1.132240
1.485589 0.742079 -1.130675
1.484782 0.747376 -1.131800
1.495677 0.690630 -1.132246
1.495320 0.649153 -1.130873
1.497340 0.683055 -1.131113
1.500371 0.749463 -1.131247
1.517875 0.675616 -1.131238
1.523583 0.743615 -1.132808
1.521725 0.668956 -1.131800
1.526629 0.696416 -1.131806
1.527360 0.728130 -1.130585
1.529061 0.689043 -1.131247
1.536253 0.749800 -1.131471
1.538428 0.667868 -1.131247
1.543402 0.695505 -1.131141
1.541190 0.743447 -1.132575
1.540185 0.702600 -1.131141
1.547346 0.688733 -1.131696
1.552021 0.682274 -1.132807
1.552856 0.674131 -1.131141
1.554665 0.749947 -1.131677
1.503675 0.783089 -1.132808
1.549196 0.764964 -1.132774
1.517810 0.859829 -1.132849
1.478946 0.828846 -1.132807
1.499373 0.858522 -1.132774
1.477050 0.863888 -1.132575
1.527512 0.840734 -1.132304
1.513600 0.761882 -1.132252
1.549888 0.834556 -1.132259
1.484215 0.849843 -1.132023
1.488247 0.775055 -1.131806
1.512382 0.865971 -1.131760
1.505135 0.810458 -1.131471
1.475946 0.794741 -1.130688
1.513699 0.756120 -1.130585
1.507855 0.767708 -1.130585
1.522050 0.810553 -1.130581
1.526504 0.803930 -1.131129
1.530187 0.796896 -1.131129
1.552304 0.790338 -1.131215
1.551366 0.863188 -1.131015
1.535850 0.888819 -1.130478
1.578466 0.702585 -1.132774
1.579116 0.779738 -1.132800
1.580366 0.738577 -1.132849
1.584769 0.843953 -1.132863
1.590412 0.716689 -1.132849
1.595496 0.745648 -1.132800
1.595659 0.859202 -1.132437
1.624271 0.765176 -1.132863
1.582112 0.649653 -1.132023
1.580917 0.694977 -1.132225
1.585085 0.642365 -1.132023
1.566925 0.764770 -1.132304
1.585468 0.764806 -1.132259
1.598147 0.737945 -1.132259
1.601526 0.730583 -1.132259
1.625844 0.759831 -1.132330
1.559820 0.779159 -1.132304
1.574759 0.786621 -1.132259
1.587283 0.798971 -1.132090
1.590943 0.866130 -1.131907
1.622772 0.883459 -1.132254
1.626165 0.837390 -1.131886
1.630835 0.868486 -1.132254
1.616388 0.649285 -1.131215
1.631098 0.655194 -1.130636
1.598616 0.693997 -1.131760
1.600737 0.689089 -1.131760
1.585432 0.682500 -1.131677
1.622674 0.677974 -1.131178
1.592161 0.708681 -1.131760
1.628503 0.706971 -1.131015
1.621210 0.763734 -1.130729
1.568162 0.756457 -1.130671
1.590969 0.828551 -1.131796
1.588972 0.793721 -1.131553
1.604722 0.801588 -1.131796
1.602256 0.806508 -1.131796
1.594013 0.820833 -1.131263
1.585776 0.798213 -1.131015
1.591852 0.786027 -1.131015
1.608942 0.828521 -1.130848
1.587463 0.792967 -1.130478
1.621540 0.844472 -1.131360
1.566749 0.871747 -1.131263
1.581422 0.879912 -1.130848
1.626070 0.875577 -1.131732
1.626070 0.875577 -1.131732
1.477287 0.649421 -1.129945
1.482370 0.676226 -1.130304
1.558712 0.654060 -1.129474
1.624469 0.667046 -1.129555
1.602618 0.678273 -1.130126
1.488556 0.654375 -1.128023
1.485528 0.661218 -1.128023
1.483493 0.665772 -1.128024
1.565563 0.673947 -1.128159
1.530785 0.672939 -1.127892
1.511270 0.678238 -1.127861
1.496992 0.671830 -1.127715
1.617988 0.684778 -1.130095
1.511735 0.681235 -1.128986
1.557175 0.693108 -1.128159
1.616979 0.678509 -1.127932
1.505401 0.695120 -1.128987
1.485863 0.699974 -1.128848
1.607610 0.706711 -1.129555
1.484372 0.699271 -1.127715
1.624634 0.705292 -1.128329
1.515718 0.714038 -1.130129
1.529943 0.720739 -1.130030
1.583282 0.722260 -1.130126
1.601038 0.721478 -1.129555
1.582519 0.721912 -1.129581
1.548972 0.715239 -1.129263
1.633450 0.733071 -1.129662
1.541932 0.726387 -1.128159
1.506095 0.726517 -1.127892
1.614743 0.727654 -1.128329
1.559205 0.728688 -1.128387
1.520249 0.733345 -1.127807
1.485282 0.733405 -1.127861
1.555080 0.741345 -1.129484
1.588636 0.748389 -1.129555
1.511467 0.755006 -1.128919
1.548191 0.755626 -1.129484
1.559629 0.770116 -1.129581
1.567407 0.756093 -1.130126
1.495921 0.747240 -1.127892
1.493622 0.751826 -1.127892
1.508401 0.759265 -1.128363
1.537308 0.773816 -1.128387
1.576641 0.769512 -1.128473
1.576641 0.769512 -1.128473
1.627383 0.742378 -1.128595
1.485207 0.841360 -1.129815
1.483058 0.876587 -1.129484
1.498116 0.885487 -1.130126
1.494026 0.892372 -1.130126
1.477392 0.786771 -1.129010
1.483894 0.807852 -1.128919
1.490888 0.829538 -1.129263
1.494293 0.855614 -1.128936
1.510198 0.864721 -1.130126
1.513961 0.788446 -1.129815
1.516832 0.781089 -1.129263
1.534544 0.853829 -1.129555
1.617470 0.807956 -1.129788
1.539761 0.810912 -1.130126
1.614984 0.812915 -1.129788
1.577975 0.884345 -1.130317
1.576400 0.848832 -1.129662
1.579940 0.879087 -1.129788
1.557022 0.847663 -1.129404
1.610697 0.857761 -1.129255
1.587218 0.826597 -1.129128
1.545668 0.795938 -1.129037
1.512482 0.787676 -1.128711
1.516091 0.780708 -1.128711
1.497038 0.779633 -1.127808
1.552179 0.781301 -1.128492
1.567079 0.788801 -1.128472
1.625415 0.784075 -1.127668
1.526209 0.830888 -1.128492
1.500730 0.808086 -1.128159
1.493229 0.821864 -1.128159
1.540501 0.802268 -1.127948
1.631755 0.815091 -1.128729
1.614436 0.806440 -1.127668
1.503949 0.836805 -1.128387
1.621629 0.835054 -1.128729
1.570249 0.854864 -1.128061
1.532340 0.852602 -1.127932
1.496759 0.847903 -1.127839
1.510311 0.892695 -1.128473
1.484911 0.868486 -1.127839
1.541030 0.872983 -1.128329
1.544296 0.865470 -1.127792
1.597212 0.879096 -1.128203
1.570937 0.889925 -1.128198
1.625567 0.865680 -1.128597
1.632352 0.888674 -1.127813
1.483550 0.949041 -1.132800
1.497646 0.958058 -1.132627
1.495587 1.116331 -1.132482
1.545437 1.175843 -1.132484
1.551578 0.936462 -1.132437
1.562346 0.952797 -1.132412
1.526217 1.009657 -1.132412
1.508964 1.035265 -1.132412
1.480680 1.105204 -1.132254
1.513885 1.059265 -1.132254
1.570643 1.109780 -1.132825
1.567471 1.012921 -1.132482
1.571198 1.206900 -1.132366
1.578196 0.962464 -1.132777
1.586988 0.947898 -1.132777
1.585953 1.120597 -1.132484
1.585953 1.120597 -1.132484
1.611809 0.903306 -1.132254
1.619569 0.927345 -1.132482
1.620627 0.998601 -1.132514
1.620587 1.175148 -1.132574
1.619580 1.071421 -1.132484
1.616286 1.076385 -1.132484
1.629239 1.128845 -1.132862
1.625978 1.167678 -1.132574
1.632637 1.087274 -1.132500
1.544952 1.011861 -1.131732
1.537146 1.023681 -1.131732
1.476183 1.049841 -1.131907
1.522867 1.044804 -1.131732
1.515187 1.088114 -1.131963
1.500080 1.077265 -1.131732
1.505108 1.102014 -1.131963
1.529628 1.098485 -1.131539
1.549881 1.102255 -1.131492
1.520144 1.113023 -1.132053
1.492796 1.179799 -1.132003
1.498210 1.172917 -1.132003
1.534485 1.156400 -1.131810
1.507970 1.222152 -1.131980
1.492739 1.209808 -1.131810
1.523231 1.234520 -1.132000
1.571334 1.039504 -1.132053
1.591483 0.901564 -1.131886
1.589865 0.939717 -1.131732
1.624472 0.990685 -1.132003
1.598706 0.995273 -1.131539
1.605236 1.019958 -1.131492
1.573904 1.069201 -1.132003
1.609003 1.189496 -1.132082
1.630625 1.159679 -1.132082
1.632985 1.120353 -1.131870
1.633464 1.154168 -1.131589
1.497619 1.202386 -1.131303
1.505632 0.908731 -1.131177
1.496984 1.016946 -1.130848
1.492444 1.054527 -1.130834
1.487824 1.183303 -1.130980
1.531924 0.963508 -1.130848
1.537499 1.054842 -1.131444
1.523422 1.137108 -1.130980
1.521499 1.202483 -1.130973
1.554117 1.160019 -1.130972
1.629333 0.906570 -1.131444
1.582887 0.985425 -1.131444
1.634369 1.045521 -1.131476
1.625746 1.022518 -1.131303
1.570505 0.899252 -1.130848
1.604405 0.948311 -1.130926
1.580965 1.021641 -1.131024
1.609882 1.082848 -1.131476
1.599847 1.097618 -1.131476
1.623049 1.063010 -1.131476
1.575231 1.164530 -1.131000
1.580853 1.191343 -1.131374
1.629564 1.228052 -1.131061
1.525711 0.940116 -1.130729
1.561878 1.082173 -1.130469
1.491588 1.023345 -1.130318
1.477319 1.043839 -1.130317
1.550623 0.965339 -1.130307
1.520281 1.012450 -1.130307
1.567828 1.107791 -1.130795
1.506121 1.190330 -1.130795
1.505445 1.189795 -1.130288
1.537719 1.147780 -1.130288
1.552842 1.192800 -1.130500
1.557289 1.219169 -1.130381
1.558745 1.152342 -1.130469
1.572909 1.100564 -1.130795
1.573494 1.231855 -1.130604
1.576683 0.922161 -1.130307
1.582262 1.085553 -1.130288
1.588397 0.938849 -1.130687
1.589564 1.041079 -1.130469
1.590454 1.142167 -1.130500
1.592701 0.931530 -1.130687
1.592701 0.931530 -1.130687
1.627839 0.905738 -1.130407
1.605409 0.909453 -1.130687
1.620296 1.029527 -1.130795
1.597815 1.064084 -1.130795
1.601072 1.059177 -1.130795
1.597097 1.063606 -1.130288
1.601419 1.195326 -1.130604
1.634497 1.220016 -1.130576
1.510008 0.930440 -1.129941
1.519933 0.946233 -1.129662
1.494094 0.955785 -1.129941
1.516278 0.953668 -1.130195
1.542029 0.911443 -1.130195
1.543632 0.941385 -1.129788
1.544724 0.971559 -1.129255
1.481695 1.006560 -1.130195
1.489488 0.991943 -1.129128
1.490889 1.022865 -1.129788
1.535017 1.022263 -1.130164
1.504868 1.002185 -1.129788
1.524838 1.035869 -1.129642
1.604667 0.909033 -1.130164
1.548983 1.000974 -1.130164
1.591932 1.001251 -1.129993
1.568515 1.003393 -1.129888
1.552939 1.027335 -1.129888
1.607730 1.011187 -1.129958
1.599634 1.058226 -1.129780
1.559966 0.912384 -1.129258
1.557990 0.950141 -1.129255
1.594757 0.922909 -1.129119
1.573829 0.959800 -1.129642
1.588970 0.969034 -1.129369
1.559707 0.980982 -1.129119
1.586584 1.008106 -1.129479
1.548357 1.031147 -1.128850
1.506782 0.963902 -1.128595
1.488784 0.991474 -1.128595
1.536013 1.016137 -1.128597
1.510613 1.053527 -1.128597
1.524700 0.901200 -1.128329
1.567075 1.002472 -1.128851
1.579258 0.983166 -1.128851
1.582889 0.906343 -1.128729
1.592681 0.961270 -1.128850
1.624599 0.980534 -1.128935
1.609458 1.040053 -1.128765
1.517945 1.041427 -1.128074
1.513137 1.048402 -1.128074
1.577966 0.913192 -1.128203
1.573747 0.920444 -1.128203
1.576039 0.951226 -1.128074
1.624462 1.049749 -1.127950
1.620395 0.947727 -1.127933
1.488659 0.926763 -1.127932
1.505465 0.899205 -1.127932
1.502846 0.935596 -1.127792
1.498525 0.942502 -1.127792
1.628245 0.896176 -1.127813
1.507381 1.024010 -1.127676
1.557625 1.047698 -1.127933
1.602676 0.977393 -1.127933
1.573270 0.989513 -1.127813
1.615978 1.069038 -1.129965
1.566133 1.074488 -1.129958
1.502242 1.068374 -1.129642
1.534507 1.084247 -1.128963
1.539481 1.077174 -1.128963
1.548623 1.062475 -1.128448
1.550448 1.095511 -1.129446
1.555473 1.088364 -1.129446
1.511715 1.085621 -1.129369
1.597710 1.096152 -1.129965
1.580841 1.084578 -1.129273
1.634533 1.110388 -1.129389
1.590519 1.102017 -1.128453
1.486337 1.120115 -1.129369
1.490055 1.144570 -1.128963
1.490791 1.112751 -1.128851
1.505714 1.123891 -1.128963
1.536888 1.114454 -1.129447
1.540906 1.139154 -1.128765
1.499157 1.129776 -1.127933
1.504341 1.122865 -1.127933
1.519978 1.134537 -1.128424
1.530356 1.120500 -1.128424
1.544742 1.131033 -1.127750
1.552721 1.125936 -1.129780
1.557186 1.118276 -1.129273
1.568585 1.137439 -1.129965
1.597046 1.128436 -1.129000
1.572400 1.129201 -1.128957
1.600803 1.120081 -1.128000
1.627258 1.116424 -1.127900
1.566487 1.135918 -1.128454
1.561243 1.143115 -1.128453
1.608896 1.144225 -1.128396
1.605024 1.152630 -1.129389
1.566385 1.169176 -1.128500
1.588260 1.174162 -1.128893
1.563063 1.177936 -1.130000
1.510679 1.178946 -1.128765
1.534529 1.178733 -1.128454
1.604804 1.186392 -1.129127
1.633755 1.184696 -1.130181
1.480353 1.188524 -1.129446
1.598630 1.193244 -1.128635
1.619976 1.197608 -1.128226
1.492916 1.198610 -1.127750
1.588965 1.208961 -1.129619
1.583384 1.216260 -1.129619
1.492100 1.236069 -1.129965
1.567067 1.203727 -1.129389
1.610278 1.213518 -1.129204
1.483822 1.213936 -1.129273
1.509537 1.211955 -1.128957
1.533510 1.211976 -1.128500
1.582694 1.215730 -1.129127
1.573323 1.227833 -1.129127
1.593884 1.232120 -1.128226
1.535673 1.284128 -1.132574
1.504827 1.290042 -1.132862
1.519878 1.270921 -1.132366
1.508117 1.284856 -1.132366
1.560973 1.253251 -1.132574
1.603354 1.299457 -1.132247
1.520581 1.332139 -1.132135
1.517141 1.337374 -1.132624
1.536200 1.379507 -1.132729
1.503278 1.383641 -1.132515
1.577017 1.364569 -1.132298
1.525042 1.263360 -1.131870
1.488567 1.276103 -1.132000
1.535005 1.283570 -1.132082
1.538520 1.246911 -1.131870
1.540896 1.276493 -1.132082
1.541222 1.371258 -1.131766
1.512471 1.308718 -1.131589
1.534135 1.315166 -1.131647
1.548699 1.267014 -1.132082
1.553890 1.323853 -1.131546
1.551694 1.359396 -1.131766
1.567953 1.373641 -1.131820
1.591809 1.278008 -1.131545
1.631478 1.297554 -1.131820
1.540791 1.471468 -1.132835
1.513211 1.436277 -1.132775
1.539391 1.408181 -1.132775
1.496893 1.420789 -1.132247
1.534417 1.412302 -1.132298
1.518523 1.428094 -1.131820
1.544018 1.465518 -1.131896
1.584546 1.422922 -1.132365
1.602035 1.438627 -1.132840
1.602035 1.438627 -1.132840
1.566316 1.441662 -1.131896
1.594086 1.444795 -1.131909
1.560312 1.449455 -1.132365
1.564291 1.512371 -1.132669
1.598241 1.545195 -1.132706
1.616006 1.491982 -1.132780
1.633369 1.508014 -1.132706
1.617012 1.558550 -1.131997
1.631666 1.577510 -1.131558
1.631666 1.577510 -1.131558
1.632953 1.578754 -1.132450
1.516863 1.240969 -1.131500
1.550325 1.392191 -1.131343
1.571617 1.500906 -1.131284
1.499708 1.322007 -1.131097
1.521801 1.296515 -1.131097
1.559946 1.413852 -1.131234
1.586767 1.451519 -1.131443
1.620887 1.482730 -1.131406
1.598685 1.540886 -1.131344
1.598685 1.540886 -1.131344
1.627623 1.544873 -1.131097
1.493430 1.237171 -1.130972
1.618192 1.242998 -1.131061
1.585231 1.284769 -1.131061
1.534808 1.344602 -1.131061
1.612049 1.318841 -1.130866
1.634606 1.255606 -1.130805
1.624118 1.303948 -1.130866
1.486423 1.397905 -1.131061
1.542737 1.464302 -1.130957
1.558371 1.447652 -1.130957
1.581034 1.523873 -1.130948
1.605115 1.532897 -1.130890
1.506255 1.438485 -1.130866
1.516575 1.395880 -1.130805
1.479197 1.374103 -1.130669
1.511254 1.369720 -1.130576
1.517214 1.268694 -1.130381
1.515208 1.460427 -1.130760
1.596305 1.269580 -1.130576
1.561754 1.376701 -1.130389
1.568777 1.435062 -1.130487
1.626376 1.474061 -1.130491
1.561102 1.509288 -1.130361
1.597671 1.470522 -1.130360
1.586608 1.314361 -1.130323
1.565125 1.405482 -1.130287
1.526087 1.320500 -1.130181
1.529363 1.348148 -1.130091
1.611225 1.420310 -1.130046
1.582087 1.520214 -1.130033
1.500793 1.254962 -1.129500
1.485937 1.273849 -1.130000
1.525288 1.382441 -1.129362
1.552747 1.286311 -1.129204
1.479340 1.248635 -1.128957
1.534842 1.307624 -1.129204
1.480841 1.367191 -1.128715
1.544925 1.426357 -1.129814
1.539897 1.430491 -1.129341
1.550173 1.418043 -1.128867
1.500567 1.441881 -1.129912
1.495505 1.445868 -1.129435
1.494873 1.445257 -1.128958
1.524448 1.446943 -1.129341
1.543544 1.492313 -1.129581
1.546886 1.454768 -1.129079
1.552031 1.482202 -1.129115
1.478095 1.278973 -1.128500
1.492965 1.291840 -1.128396
1.499175 1.313385 -1.127650
1.496444 1.319130 -1.128635
1.477445 1.339078 -1.128142
1.489707 1.325424 -1.128142
1.498925 1.346035 -1.128226
1.518489 1.293692 -1.128635
1.548428 1.254941 -1.127650
1.533513 1.306493 -1.128226
1.538399 1.331154 -1.127667
1.545837 1.325199 -1.128637
1.546419 1.354775 -1.127919
1.495370 1.380605 -1.128152
1.501708 1.373709 -1.128152
1.527083 1.409884 -1.128480
1.496455 1.442352 -1.128480
1.478711 1.429631 -1.128400
1.483090 1.425088 -1.128400
1.509799 1.459688 -1.128394
1.490487 1.384591 -1.127667
1.507365 1.366196 -1.127667
1.561286 1.277312 -1.129692
1.562637 1.242804 -1.129619
1.565114 1.268465 -1.128226
1.567303 1.298369 -1.128152
1.567977 1.298927 -1.128637
1.562208 1.339233 -1.128881
1.561983 1.306129 -1.128637
1.563539 1.340374 -1.129843
1.566309 1.334434 -1.128881
1.557988 1.412078 -1.129814
1.563326 1.369587 -1.128480
1.560210 1.440469 -1.129079
1.557914 1.506205 -1.128052
1.562065 1.469042 -1.128184
1.582514 1.282566 -1.129121
1.587717 1.274723 -1.128637
1.585258 1.313242 -1.129361
1.580929 1.385008 -1.129341
1.576012 1.389270 -1.128867
1.576012 1.389270 -1.128867
1.578609 1.353293 -1.128958
1.571697 1.460032 -1.128649
1.579205 1.485162 -1.128513
1.588806 1.508029 -1.128201
1.601521 1.465015 -1.129899
1.594762 1.472369 -1.129899
1.606861 1.492698 -1.129575
1.606463 1.390048 -1.129549
1.593286 1.303491 -1.129362
1.590152 1.441229 -1.129115
1.597024 1.501920 -1.129117
1.592476 1.539621 -1.128620
1.597447 1.262508 -1.128637
1.598558 1.361908 -1.128394
1.597888 1.361337 -1.127921
1.591195 1.538382 -1.127712
1.596075 1.261423 -1.127667
1.595247 1.397552 -1.127671
1.613677 1.275334 -1.128400
1.615741 1.276965 -1.129843
1.614724 1.240334 -1.128637
1.628665 1.259006 -1.129362
1.622221 1.403683 -1.128650
1.614877 1.518710 -1.129528
1.607872 1.526125 -1.129528
1.610767 1.557305 -1.129297
1.627550 1.434701 -1.129437
1.612511 1.554212 -1.128847
1.618355 1.545542 -1.127947
1.629835 1.463591 -1.128201
1.520557 0.375926 -1.127602
1.505348 0.726157 -1.127333
1.501991 0.733077 -1.127333
1.526698 0.640626 -1.127298
1.541157 0.646693 -1.127333
1.488699 0.382623 -1.127036
1.510722 0.410598 -1.127017
1.516445 0.582287 -1.126884
1.519840 0.693319 -1.126774
1.561958 0.678083 -1.127055
1.602273 0.578854 -1.127607
1.609819 0.604014 -1.127291
1.598306 0.717299 -1.126850
1.607759 0.697966 -1.127391
1.488148 0.571421 -1.126587
1.491029 0.604249 -1.126504
1.497569 0.585608 -1.125930
1.481585 0.627049 -1.126504
1.545992 0.671152 -1.126141
1.496787 0.666229 -1.126015
1.607393 0.651406 -1.126314
1.582659 0.669826 -1.126742
1.498442 0.700291 -1.126173
1.505576 0.686813 -1.126735
1.490480 0.718985 -1.126735
1.487156 0.725837 -1.126735
1.609075 0.734026 -1.126717
1.539669 0.725321 -1.126503
1.541131 0.720241 -1.125951
1.481152 0.739863 -1.127298
1.512689 0.746938 -1.127252
1.538178 0.768348 -1.127291
1.530258 0.746873 -1.127055
1.478137 0.744032 -1.126735
1.506319 0.829069 -1.127291
1.517031 0.844085 -1.127403
1.521032 0.870924 -1.127391
1.485595 0.896638 -1.126858
1.486313 0.897071 -1.127403
1.508139 0.891412 -1.126850
1.495689 0.912147 -1.126850
1.546693 0.895094 -1.127527
1.561934 0.795242 -1.127391
1.591663 0.885610 -1.127150
1.602328 0.791200 -1.127527
1.603664 0.825803 -1.127138
1.605192 0.783446 -1.126994
1.624651 0.783707 -1.127138
1.611220 0.886806 -1.127029
1.616381 0.915669 -1.127294
1.520233 0.765221 -1.126503
1.480894 0.771226 -1.126215
1.487597 0.792206 -1.126141
1.504853 0.828262 -1.126194
1.494576 0.846667 -1.126194
1.501122 0.868721 -1.126313
1.514907 0.943104 -1.125926
1.492748 0.948483 -1.126717
1.526647 0.892897 -1.126717
1.528507 0.922538 -1.126460
1.532736 0.915494 -1.126460
1.521796 0.899484 -1.126180
1.540367 0.900921 -1.125926
1.568621 0.816912 -1.126717
1.549318 0.815945 -1.126309
1.564617 0.895881 -1.126608
1.567986 0.888253 -1.126078
1.547862 0.924528 -1.126608
1.617416 0.755892 -1.126460
1.634331 0.841595 -1.126507
1.602110 0.937033 -1.126257
1.601487 0.748448 -1.126180
1.627951 0.813191 -1.126098
1.617435 0.945996 -1.125873
1.482697 0.497396 -1.125849
1.508324 0.854455 -1.125769
1.518842 0.869670 -1.125768
1.527749 0.671604 -1.125655
1.629279 0.683670 -1.125642
1.562041 0.712571 -1.125646
1.629494 0.767637 -1.125548
1.615088 0.797500 -1.125548
1.589865 0.846668 -1.125548
1.597506 0.869703 -1.125571
1.593487 0.877046 -1.125571
1.604887 0.892968 -1.125462
1.483889 0.536085 -1.125402
1.480077 0.626410 -1.125357
1.489328 0.917697 -1.125227
1.497711 0.903951 -1.125227
1.535186 0.766854 -1.125098
1.530063 0.664236 -1.125096
1.551237 0.696175 -1.125399
1.546937 0.705680 -1.125399
1.595667 0.675331 -1.125224
1.547684 0.779039 -1.125224
1.554966 0.837290 -1.125105
1.562606 0.822943 -1.125105
1.632788 0.954976 -1.125356
1.577724 0.903385 -1.125045
1.484984 0.572821 -1.124856
1.498720 0.578120 -1.124783
1.538322 0.642730 -1.124537
1.524614 0.712522 -1.124474
1.560520 0.711877 -1.124549
1.539621 0.719535 -1.124848
1.494884 0.738146 -1.124537
1.578342 0.752434 -1.124686
1.517998 0.764096 -1.124847
1.524848 0.821073 -1.124680
1.535690 0.836050 -1.124686
1.482217 0.763264 -1.124537
1.506446 0.820129 -1.124549
1.558058 0.829729 -1.124568
1.623170 0.817035 -1.124519
1.630305 0.761916 -1.124489
1.588368 0.845870 -1.124489
1.525315 0.854832 -1.124686
1.542522 0.858267 -1.124568
1.603942 0.854164 -1.124519
1.476579 0.872757 -1.124549
1.509322 0.882763 -1.124686
1.526335 0.921227 -1.124859
1.553378 0.908530 -1.124489
1.477952 0.837249 -1.124295
1.604972 0.774214 -1.124326
1.504022 0.955647 -1.124326
1.610851 0.952121 -1.124328
1.603445 0.927937 -1.124182
1.544120 0.744860 -1.124001
1.592654 0.759257 -1.124031
1.523860 0.712170 -1.123919
1.491193 0.507893 -1.123660
1.481117 0.489295 -1.122928
1.483497 0.755306 -1.122859
1.510880 0.737416 -1.123363
1.544660 0.704642 -1.123744
1.571833 0.758228 -1.122522
1.622300 0.731059 -1.122725
1.526919 0.736563 -1.122088
1.547884 0.729191 -1.121808
1.550113 0.724439 -1.121808
1.562919 0.736274 -1.121956
1.552605 0.757780 -1.121956
1.560463 0.779480 -1.121981
1.486312 0.708561 -1.121107
1.605854 0.720686 -1.121344
1.558757 0.743098 -1.121412
1.526103 0.768176 -1.120163
1.580293 0.771294 -1.120270
1.483601 0.825484 -1.123744
1.507995 0.811998 -1.122905
1.509313 0.845865 -1.123590
1.480334 0.829624 -1.123192
1.485923 0.817843 -1.122640
1.493350 0.836918 -1.122356
1.525649 0.812470 -1.122501
1.507259 0.811602 -1.122356
1.510978 0.804657 -1.122356
1.514287 0.833455 -1.122501
1.493488 0.873503 -1.123590
1.529678 0.875875 -1.122956
1.509728 0.873702 -1.121981
1.487286 0.879086 -1.121956
1.511124 0.902585 -1.121344
1.505633 0.918211 -1.123493
1.505633 0.918211 -1.123493
1.526263 0.950174 -1.123429
1.496403 0.931584 -1.122956
1.519191 0.926479 -1.122725
1.479054 0.955785 -1.121881
1.492257 0.830300 -1.119615
1.479377 0.920985 -1.120899
1.486355 0.906454 -1.119817
1.518940 0.817892 -1.120322
1.505306 0.837560 -1.118688
1.526669 0.840269 -1.120899
1.504066 0.907786 -1.119195
1.529417 0.894516 -1.117922
1.533806 0.798781 -1.123046
1.536559 0.827379 -1.122522
1.531836 0.905418 -1.122725
1.539235 0.929012 -1.123429
1.537381 0.818718 -1.120358
1.540544 0.847906 -1.120270
1.550780 0.798571 -1.121981
1.545658 0.885025 -1.123792
1.543340 0.912217 -1.120249
1.548243 0.877069 -1.122725
1.558889 0.858003 -1.122725
1.555663 0.865579 -1.123258
1.571564 0.800145 -1.123493
1.583746 0.887579 -1.123466
1.562174 0.923349 -1.122940
1.562637 0.813796 -1.122419
1.586469 0.807733 -1.123258
1.614931 0.788200 -1.122899
1.605991 0.883928 -1.123372
1.571425 0.827587 -1.120590
1.575945 0.892762 -1.120836
1.482802 0.997371 -1.127527
1.500909 0.969908 -1.127527
1.495190 1.441132 -1.127526
1.498136 1.252740 -1.127500
1.483082 1.240152 -1.127446
1.505640 1.398668 -1.127438
1.503934 1.090559 -1.127294
1.501508 1.279226 -1.127404
1.497627 1.344869 -1.127249
1.498520 1.312812 -1.127157
1.491372 1.013134 -1.126608
1.485376 1.203840 -1.126228
1.502551 1.244728 -1.126500
1.505477 1.178606 -1.126227
1.477523 1.092296 -1.125984
1.486194 1.050110 -1.126098
1.502985 0.994288 -1.126078
1.495113 1.406078 -1.125995
1.495599 1.282131 -1.125915
1.482272 1.054172 -1.125571
1.480354 1.329358 -1.125680
1.479085 1.361373 -1.125783
1.481093 1.297544 -1.125419
1.486823 1.078151 -1.125462
1.482611 1.356240 -1.125294
1.482383 1.415687 -1.124552
1.482587 1.263106 -1.124500
1.480433 1.144418 -1.124328
1.499942 1.059824 -1.125462
1.498068 0.968072 -1.125393
1.504725 1.270062 -1.125419
1.490396 1.101813 -1.124700
1.516506 1.071528 -1.126775
1.525344 1.025985 -1.126507
1.518060 0.971117 -1.126078
1.519901 1.032515 -1.125984
1.508803 1.115421 -1.127418
1.516261 1.164700 -1.126228
1.521605 1.157710 -1.126227
1.511869 1.296079 -1.126665
1.514722 1.197127 -1.125935
1.512986 1.358661 -1.127182
1.509923 1.394042 -1.127438
1.509287 1.330451 -1.126760
1.515029 1.385895 -1.126475
1.509256 1.015164 -1.125571
1.510424 1.074193 -1.124700
1.516923 1.099977 -1.125873
1.518884 0.965090 -1.124489
1.524027 0.958542 -1.125018
1.520117 1.220449 -1.125500
1.514211 1.163125 -1.124705
1.518059 1.440879 -1.124607
1.524362 1.212363 -1.124500
1.531789 1.176628 -1.126438
1.537366 0.976833 -1.127150
1.537390 1.393409 -1.126572
1.537616 1.072360 -1.126388
1.537812 1.104362 -1.126379
1.526972 0.986750 -1.125045
1.535265 1.042952 -1.126256
1.537442 1.136593 -1.126228
1.537504 1.199880 -1.126000
1.546443 1.121383 -1.125213
1.546522 1.023090 -1.125219
1.545672 0.988781 -1.124417
1.542796 1.290085 -1.126272
1.543181 1.322922 -1.126697
1.543489 1.219862 -1.124427
1.487855 0.974465 -1.122191
1.500370 0.959800 -1.123792
1.501051 1.019709 -1.122940
1.482578 1.138827 -1.123298
1.503289 1.111344 -1.123298
1.498037 1.150701 -1.123822
1.487646 1.099780 -1.122625
1.507191 1.135831 -1.122800
1.482650 0.980836 -1.121658
1.488278 1.001054 -1.120779
1.507164 0.973950 -1.121309
1.510916 0.966547 -1.120779
1.509905 0.998866 -1.120309
1.509524 1.066594 -1.121588
1.494629 1.148084 -1.121266
1.477963 1.168075 -1.120754
1.492460 1.153715 -1.122288
1.477764 1.327031 -1.123711
1.480610 1.261421 -1.123000
1.484958 1.345887 -1.122363
1.509424 1.322365 -1.123829
1.506986 1.198543 -1.122912
1.506648 1.447725 -1.122714
1.506545 1.164604 -1.121660
1.505177 1.351648 -1.121365
1.517218 1.061597 -1.123663
1.528901 1.011433 -1.123372
1.529347 0.978338 -1.123467
1.517494 1.188014 -1.123919
1.521342 1.244633 -1.123434
1.529234 1.108905 -1.123822
1.518143 1.058779 -1.123144
1.528631 0.977879 -1.122940
1.516194 1.374198 -1.122628
1.525030 1.235978 -1.121945
1.519971 1.174982 -1.120393
1.520507 1.074355 -1.118662
1.512744 1.118334 -1.119220
1.533750 1.166951 -1.123919
1.536501 1.033490 -1.123663
1.541953 1.026882 -1.124181
1.541555 1.057625 -1.123298
1.543041 1.151752 -1.122912
1.542799 0.986943 -1.122327
1.532252 1.199567 -1.123500
1.537700 1.222971 -1.122938
1.538037 1.415634 -1.123187
1.547409 1.338950 -1.122628
1.580456 1.045539 -1.127401
1.567506 1.064855 -1.127401
1.580753 1.179901 -1.127404
1.584015 1.108335 -1.127446
1.573000 1.089879 -1.127242
1.553491 1.181970 -1.127000
1.565766 0.964796 -1.127029
1.561003 1.039569 -1.126903
1.576525 1.049906 -1.126890
1.561881 1.071571 -1.126890
1.569135 1.193874 -1.126907
1.610330 1.104810 -1.127500
1.618572 1.196571 -1.127249
1.624583 1.011383 -1.127243
1.607989 1.001052 -1.126890
1.619182 1.018390 -1.126735
1.600163 1.048021 -1.126735
1.594217 1.126437 -1.127000
1.595581 1.225629 -1.126760
1.580747 1.346734 -1.127526
1.557276 1.505589 -1.127590
1.554004 1.474997 -1.127253
1.577320 1.416432 -1.127201
1.570785 1.423676 -1.127201
1.547752 1.254393 -1.127157
1.569754 1.324950 -1.126957
1.578509 1.247540 -1.126761
1.565843 1.495392 -1.127128
1.583821 1.409159 -1.127201
1.599189 1.324783 -1.127526
1.597835 1.323662 -1.126572
1.593919 1.396388 -1.126732
1.604303 1.454055 -1.127128
1.610317 1.446064 -1.126667
1.612318 1.549262 -1.127046
1.607260 1.000598 -1.126379
1.620184 0.977870 -1.125867
1.586128 0.997600 -1.125873
1.554654 0.977805 -1.125462
1.583131 0.965473 -1.125219
1.563470 1.034302 -1.126388
1.560290 1.039094 -1.126388
1.549951 1.052929 -1.125873
1.570251 1.056191 -1.125867
1.590148 1.027575 -1.126379
1.620834 1.047405 -1.125431
1.568235 1.093714 -1.126227
1.573356 1.118949 -1.125935
1.579573 1.145407 -1.126500
1.579573 1.145407 -1.126500
1.552801 1.181446 -1.126500
1.567571 1.158867 -1.125500
1.577274 1.177304 -1.124923
1.624935 1.148141 -1.125680
1.561663 1.234226 -1.126173
1.584116 1.205272 -1.126172
1.568214 1.259064 -1.126272
1.574489 1.316587 -1.125995
1.555821 1.371471 -1.126094
1.581600 1.510441 -1.126370
1.599382 1.423003 -1.126321
1.593337 1.531024 -1.125896
1.626958 1.249731 -1.125514
1.621307 1.326415 -1.125554
1.552313 1.211437 -1.125419
1.599062 1.283831 -1.125032
1.623960 1.392171 -1.125390
1.548078 1.242898 -1.123218
1.550499 1.015494 -1.124700
1.559014 1.263521 -1.123829
1.563021 1.390652 -1.124134
1.562577 1.122147 -1.121904
1.562917 1.189143 -1.122442
1.570791 1.150106 -1.124000
1.565920 1.486307 -1.123896
1.569211 1.248032 -1.122851
1.579401 1.072935 -1.124705
1.574722 1.041745 -1.123311
1.579840 1.467596 -1.122511
1.568657 1.044666 -1.121266
1.569109 1.312088 -1.122146
1.587225 1.128813 -1.124500
1.598285 0.974715 -1.124843
1.599728 1.006154 -1.124333
1.599423 1.349992 -1.124607
1.585241 1.160686 -1.122938
1.584328 1.396601 -1.122976
1.589876 1.080051 -1.120897
1.600552 0.966021 -1.123298
1.604599 1.133773 -1.122938
1.608420 1.028921 -1.124705
1.612732 0.983526 -1.123822
1.610383 1.093982 -1.124000
1.611934 1.127870 -1.124426
1.633976 1.480949 -1.123626
2.684402 -2.595305 -1.213201
2.703185 -2.589503 -1.216291
2.704558 -2.590819 -1.216909
2.708175 -2.570488 -1.213201
2.734743 -2.643975 -1.217628
2.737940 -2.622797 -1.213664
2.738851 -2.647947 -1.219457
2.719507 -2.565431 -1.214746
2.653795 -2.472844 -1.213690
2.663665 -2.551645 -1.216328
2.690994 -2.507507 -1.212883
2.689605 -2.506212 -1.212257
2.723671 -2.476212 -1.213823
2.731022 -2.544806 -1.212891
2.736589 -2.549993 -1.215364
2.736449 -2.464923 -1.214449
2.640287 -2.552655 -1.211004
2.646519 -2.535221 -1.208499
2.660225 -2.524976 -1.209438
2.594193 -2.508090 -1.207344
2.596238 -2.510067 -1.208296
2.628914 -2.479970 -1.209248
2.629952 -2.473336 -1.207979
2.678248 -2.589356 -1.210420
2.672795 -2.521365 -1.211631
2.692736 -2.486078 -1.208499
2.701750 -2.479089 -1.209125
2.705249 -2.482300 -1.210691
2.706812 -2.545619 -1.207329
2.736415 -2.526405 -1.210110
2.739316 -2.624115 -1.214274
2.779676 -2.687417 -1.219061
2.780159 -2.590592 -1.216408
2.785847 -2.693383 -1.221768
2.753126 -2.597145 -1.211530
2.759882 -2.595529 -1.212750
2.777551 -2.660742 -1.212746
2.743073 -2.603612 -1.210616
2.759952 -2.571763 -1.207567
2.751862 -2.525071 -1.213510
2.748358 -2.521855 -1.211964
2.772601 -2.520697 -1.217527
2.776119 -2.523896 -1.219072
2.773572 -2.498363 -1.212891
2.785762 -2.463280 -1.208256
2.782200 -2.460130 -1.206711
2.787878 -2.488106 -1.214128
2.786718 -2.479401 -1.211964
2.789252 -2.575187 -1.215189
2.794080 -2.676576 -1.219963
2.794333 -2.564041 -1.213969
2.794608 -2.652527 -1.214851
2.804157 -2.573056 -1.218238
2.811058 -2.651794 -1.218460
2.818083 -2.562046 -1.219152
2.819492 -2.563328 -1.219762
2.819177 -2.725607 -1.217600
2.810259 -2.642906 -1.216355
2.820298 -2.627994 -1.215453
2.812806 -2.464221 -1.215055
2.811445 -2.532477 -1.211226
2.821244 -2.448758 -1.213819
2.578293 -2.447210 -1.206684
2.592287 -2.437914 -1.207969
2.603478 -2.425958 -1.207969
2.651211 -2.447740 -1.207344
2.661503 -2.442158 -1.208613
2.668503 -2.426057 -1.206709
2.692134 -2.402657 -1.207344
2.738552 -2.444083 -1.210378
2.746213 -2.428309 -1.208812
2.747974 -2.444930 -1.212883
2.818061 -2.423347 -1.207638
2.714530 -2.400293 -1.212421
2.774184 -2.407912 -1.211318
2.768446 -2.402931 -1.208812
2.807072 -2.391515 -1.216015
2.732680 -2.394025 -1.215594
2.818048 -2.378571 -1.216015
2.647559 -2.384853 -1.209576
2.658506 -2.372644 -1.209576
2.784516 -2.394500 -1.211004
2.783076 -2.393262 -1.210378
2.730060 -2.369613 -1.209565
2.744531 -2.360116 -1.211151
2.768357 -2.358531 -1.216863
2.740936 -2.357025 -1.209565
2.667978 -2.359130 -1.208934
2.812936 -2.352175 -1.209125
2.678094 -2.346204 -1.208612
2.778457 -2.345155 -1.216546
2.767586 -2.335979 -1.211786
2.666007 -2.208545 -1.208975
2.670782 -2.137548 -1.211385
2.647726 -2.152618 -1.208380
2.695266 -2.317751 -1.206683
2.728786 -2.303230 -1.212148
2.734998 -2.287003 -1.210219
2.710229 -2.309008 -1.208612
2.724048 -2.235569 -1.213392
2.719635 -2.211080 -1.206881
2.780490 -2.325043 -1.212738
2.801038 -2.298753 -1.212421
2.755931 -2.261734 -1.210219
2.767045 -2.249625 -1.210541
2.806046 -2.267070 -1.207027
2.821387 -2.250993 -1.207661
2.758228 -2.242456 -1.206683
2.796229 -2.223910 -1.212791
2.791782 -2.220373 -1.210862
2.816175 -2.176986 -1.208291
2.763929 -2.156991 -1.207206
2.777567 -2.147141 -1.208834
2.776071 -2.145984 -1.208183
2.830163 -2.736228 -1.222344
2.842034 -2.722513 -1.222047
2.828931 -2.709962 -1.216413
2.855919 -2.710721 -1.222641
2.858623 -2.688390 -1.218489
2.850210 -2.615314 -1.219663
2.850913 -2.615958 -1.219963
2.826578 -2.633846 -1.218159
2.832017 -2.458109 -1.218454
2.825305 -2.384697 -1.219146
2.852471 -2.522266 -1.218847
2.832306 -2.527757 -1.215189
2.839026 -2.525941 -1.216408
2.841907 -2.260239 -1.214959
2.850178 -2.428239 -1.216600
2.859868 -2.413870 -1.215982
2.823136 -2.360704 -1.213509
2.823253 -2.606578 -1.211544
2.828877 -2.432648 -1.212273
2.826656 -2.341629 -1.210378
2.831067 -2.503340 -1.209701
2.852586 -2.499071 -1.213969
2.856292 -2.661534 -1.212262
2.846212 -2.335826 -1.214136
2.828547 -2.249614 -1.209248
2.829777 -2.264799 -1.212738
2.838871 -2.329801 -1.211004
2.826664 -2.185095 -1.212791
2.842176 -2.135057 -1.206684
2.849562 -2.316712 -1.211004
2.848264 -2.236901 -1.211786
2.859589 -2.148138 -1.214077
2.845141 -2.313117 -1.209125
2.845432 -2.151190 -1.210862
2.857834 -2.209190 -1.208613
2.860748 -2.698669 -1.221158
2.866284 -2.771150 -1.218898
2.865885 -2.745361 -1.213342
2.874458 -2.678461 -1.219972
2.875527 -2.654840 -1.215227
2.866449 -2.606019 -1.221467
2.864775 -2.486542 -1.214274
2.870683 -2.609868 -1.223271
2.873451 -2.588331 -1.219362
2.876082 -2.566825 -1.215453
2.876596 -2.781121 -1.223283
2.881768 -2.760576 -1.220067
2.894213 -2.655690 -1.219675
2.895900 -2.731830 -1.217143
2.877722 -2.497779 -1.219762
2.880843 -2.643422 -1.214041
2.889992 -2.571286 -1.219663
2.884292 -2.550404 -1.213949
2.867863 -2.420618 -1.219381
2.876783 -2.405564 -1.218454
2.897689 -2.468717 -1.218542
2.877632 -2.474574 -1.214884
2.876910 -2.473953 -1.214579
2.868757 -2.398853 -1.215055
2.879034 -2.385019 -1.214746
2.888509 -2.370538 -1.214128
2.874541 -2.359075 -1.208256
2.872169 -2.320492 -1.217581
2.874662 -2.300722 -1.214136
2.875961 -2.294533 -1.213196
2.897277 -2.190386 -1.215276
2.870229 -2.197744 -1.209565
2.872044 -2.284208 -1.210065
2.895940 -2.260014 -1.211317
2.891852 -2.172374 -1.210200
2.867584 -2.280660 -1.208186
2.878537 -2.260676 -1.206933
2.908314 -2.760452 -1.225914
2.921024 -2.824074 -1.222817
2.911386 -2.814755 -1.218782
2.928457 -2.805302 -1.220511
2.927074 -2.803977 -1.219934
2.953837 -2.803661 -1.225698
2.947101 -2.780130 -1.219358
2.961825 -2.785446 -1.223681
2.969708 -2.767217 -1.221664
2.951658 -2.708401 -1.224745
2.961968 -2.692859 -1.223868
2.914716 -2.741143 -1.223283
2.944612 -2.701935 -1.221821
2.931390 -2.706416 -1.219775
2.916806 -2.717921 -1.218897
2.914706 -2.715965 -1.218020
2.949939 -2.681923 -1.218897
2.962960 -2.668959 -1.219190
2.919123 -2.653907 -1.225013
2.907869 -2.571252 -1.223872
2.914649 -2.553444 -1.221768
2.924210 -2.634053 -1.222048
2.922768 -2.536878 -1.220264
2.937726 -2.621840 -1.222641
2.949760 -2.608294 -1.222641
2.964605 -2.597208 -1.223827
2.939473 -2.527753 -1.222369
2.960427 -2.498746 -1.221467
2.956055 -2.495056 -1.219663
2.902871 -2.639131 -1.218192
2.909804 -2.525625 -1.214851
2.908379 -2.501014 -1.209438
2.923488 -2.490696 -1.210942
2.931041 -2.607809 -1.218192
2.937598 -2.597539 -1.217600
2.972453 -2.556114 -1.217303
2.949841 -2.560376 -1.212855
2.906108 -2.452898 -1.217323
2.905291 -2.362020 -1.216600
2.906900 -2.261400 -1.214449
2.908598 -2.432167 -1.213664
2.914575 -2.253052 -1.214762
2.914842 -2.460270 -1.220981
2.902080 -2.152329 -1.208930
2.904056 -2.244921 -1.210378
2.905616 -2.141165 -1.207661
2.908758 -2.409643 -1.209092
2.915110 -2.232110 -1.210691
2.915540 -2.148479 -1.211786
2.923210 -2.444386 -1.219762
2.916360 -2.371019 -1.221235
2.924361 -2.362659 -1.221544
2.921094 -2.337884 -1.215672
2.925421 -2.333994 -1.215982
2.926764 -2.327728 -1.215055
2.923787 -2.325360 -1.213819
2.924970 -2.400461 -1.211226
2.920418 -2.207881 -1.207246
2.934012 -2.204045 -1.210065
2.922533 -2.126086 -1.209248
2.940430 -2.413149 -1.217628
2.947070 -2.395987 -1.215798
2.947314 -2.300107 -1.214746
2.948587 -2.293831 -1.213819
2.953754 -2.218875 -1.218207
2.942388 -2.224491 -1.216328
2.935008 -2.305026 -1.212582
2.952057 -2.189395 -1.211944
2.945077 -2.276631 -1.209492
2.948057 -2.172440 -1.207559
2.964779 -2.395314 -1.220067
2.970718 -2.415212 -1.225554
2.969742 -2.369355 -1.216103
2.970566 -2.377479 -1.217932
2.963683 -2.357090 -1.212140
2.968901 -2.361240 -1.214274
2.960126 -2.288264 -1.215673
2.971380 -2.275196 -1.215982
2.959525 -2.180892 -1.212257
2.970870 -2.246024 -1.210110
2.375025 -2.275144 -1.197070
2.376610 -2.255780 -1.192624
2.353045 -2.274946 -1.191256
2.344938 -2.267108 -1.187152
2.364167 -2.264743 -1.191598
2.308141 -2.231533 -1.184412
2.308816 -2.232185 -1.184759
2.330581 -2.232569 -1.190642
2.391945 -2.312555 -1.194535
2.386253 -2.251058 -1.193992
2.389915 -2.310593 -1.193522
2.389019 -2.246751 -1.193650
2.408679 -2.307382 -1.197577
2.407667 -2.285258 -1.191832
2.429447 -2.327277 -1.191356
2.411397 -2.309987 -1.198928
2.428442 -2.283826 -1.196901
2.421513 -2.284319 -1.195211
2.411020 -2.246623 -1.199464
2.432729 -2.266852 -1.193860
2.443109 -2.362020 -1.203374
2.439720 -2.358744 -1.201705
2.474689 -2.392552 -1.202052
2.474010 -2.391896 -1.201722
2.459398 -2.355969 -1.206044
2.501398 -2.374223 -1.204360
2.507666 -2.424435 -1.201021
2.504267 -2.421149 -1.199393
2.479537 -2.375261 -1.199085
2.478855 -2.374608 -1.198755
2.499742 -2.358116 -1.200074
2.447189 -2.280326 -1.200956
2.475827 -2.307011 -1.198366
2.502668 -2.353632 -1.199744
2.494143 -2.288591 -1.198700
2.503951 -2.276455 -1.198366
2.453805 -2.329051 -1.198033
2.450050 -2.262017 -1.197239
2.454205 -2.251945 -1.195887
2.446577 -2.244945 -1.192170
2.445854 -2.307281 -1.190689
2.459690 -2.313214 -1.195696
2.468241 -2.299942 -1.194695
2.469417 -2.245059 -1.198252
2.465238 -2.241260 -1.196225
2.505876 -2.335011 -1.196118
2.503803 -2.333080 -1.195128
2.483647 -2.293036 -1.197031
2.486503 -2.281581 -1.195028
2.493489 -2.266943 -1.193359
2.410977 -2.225943 -1.194334
2.342191 -2.223111 -1.191335
2.292956 -2.216851 -1.192456
2.351048 -2.217847 -1.192373
2.318017 -2.200167 -1.194907
2.321977 -2.183701 -1.191756
2.360494 -2.199542 -1.190296
2.334743 -2.175547 -1.193156
2.352050 -2.158209 -1.193507
2.319252 -2.128114 -1.192543
2.384416 -2.128027 -1.194907
2.280979 -2.165012 -1.191481
2.386614 -2.169778 -1.189950
2.289556 -2.153211 -1.190772
2.423807 -2.203593 -1.192282
2.442583 -2.179940 -1.191598
2.443818 -2.174316 -1.190572
2.461741 -2.176768 -1.196044
2.422582 -2.162089 -1.197911
2.413279 -2.147145 -1.191681
2.424775 -2.144081 -1.194104
2.436733 -2.134754 -1.195142
2.484943 -2.210906 -1.194197
2.501828 -2.191782 -1.194197
2.511177 -2.179629 -1.193860
2.494407 -2.145026 -1.197412
2.480252 -2.152787 -1.195360
2.508544 -2.137180 -1.199464
2.465037 -2.220442 -1.191156
2.473825 -2.207822 -1.190480
2.473155 -2.146627 -1.191940
2.481583 -2.133998 -1.191256
2.483254 -2.195790 -1.190143
2.343512 -2.203954 -1.186835
2.320418 -2.222834 -1.185451
2.280161 -2.204481 -1.185802
2.382833 -2.220358 -1.185442
2.407409 -2.209006 -1.189204
2.406717 -2.208370 -1.188862
2.414073 -2.194743 -1.187494
2.367144 -2.185474 -1.188566
2.425544 -2.184868 -1.188178
2.479729 -2.192673 -1.188453
2.254233 -2.179414 -1.187938
2.372455 -2.176933 -1.187873
2.309767 -2.178905 -1.187203
2.371073 -2.175664 -1.187181
2.352943 -2.192506 -1.186489
2.251544 -2.176814 -1.186521
2.263564 -2.168370 -1.187583
2.262213 -2.167076 -1.186875
2.383837 -2.167254 -1.188566
2.440622 -2.158094 -1.185784
2.282169 -2.152870 -1.188646
2.220953 -2.147239 -1.185840
2.344458 -2.151243 -1.189654
2.388209 -2.151237 -1.185797
2.456889 -2.152413 -1.188862
2.216926 -2.143345 -1.183689
2.227440 -2.133766 -1.184047
2.227440 -2.133766 -1.184047
2.293283 -2.136914 -1.187583
2.407907 -2.129166 -1.185797
2.344631 -2.131610 -1.184751
2.325460 -2.146989 -1.183351
2.343938 -2.130980 -1.184401
2.562901 -2.455119 -1.204755
2.536046 -2.407110 -1.203951
2.550540 -2.398653 -1.205579
2.556695 -2.324407 -1.206668
2.573253 -2.151752 -1.204335
2.602968 -2.493501 -1.206075
2.602283 -2.492844 -1.205757
2.577693 -2.365256 -1.204602
2.599353 -2.341431 -1.204602
2.590323 -2.206853 -1.205042
2.663515 -2.504900 -1.205680
2.664995 -2.422867 -1.205123
2.625345 -2.386820 -1.204433
2.657337 -2.349721 -1.204112
2.646295 -2.296907 -1.206555
2.632691 -2.160594 -1.206044
2.642606 -2.148455 -1.206044
2.644867 -2.295668 -1.205904
2.668845 -2.190264 -1.205678
2.546129 -2.461622 -1.202183
2.522893 -2.416793 -1.202974
2.523576 -2.417447 -1.203300
2.623900 -2.536812 -1.203488
2.632287 -2.452802 -1.203854
2.592394 -2.415630 -1.202826
2.586452 -2.351460 -1.203625
2.539710 -2.330403 -1.203700
2.556709 -2.382378 -1.203300
2.675990 -2.322682 -1.202826
2.573513 -2.361420 -1.202649
2.608726 -2.321038 -1.202323
2.610147 -2.395035 -1.202505
2.610147 -2.395035 -1.202505
2.618668 -2.315529 -1.203625
2.602367 -2.258780 -1.203371
2.589104 -2.268243 -1.202052
2.535997 -2.256330 -1.202038
2.609871 -2.244317 -1.202052
2.614009 -2.165470 -1.202038
2.648234 -2.277307 -1.202648
2.669805 -2.253447 -1.202974
2.625740 -2.300338 -1.201997
2.643319 -2.135599 -1.203374
2.643503 -2.210495 -1.203371
2.631860 -2.221419 -1.202711
2.661547 -2.184275 -1.202382
2.683141 -2.328889 -1.206041
2.703995 -2.458324 -1.205054
2.690958 -2.314047 -1.204755
2.685949 -2.245989 -1.205579
2.702866 -2.149656 -1.206008
2.676698 -2.176172 -1.204689
2.676698 -2.176172 -1.204689
2.696614 -2.151445 -1.204689
2.680146 -2.241136 -1.202974
2.701391 -2.216974 -1.203300
2.707801 -2.285517 -1.202826
2.709364 -2.202730 -1.202323
2.750930 -2.410013 -1.205994
2.723375 -2.277284 -1.205076
2.736013 -2.266539 -1.206041
2.736174 -2.183007 -1.205253
2.735080 -2.175276 -1.203300
2.740260 -2.179396 -1.205579
2.755068 -2.163709 -1.206230
2.755519 -2.226248 -1.202505
2.765940 -2.312876 -1.206392
2.785643 -2.286119 -1.205757
2.770712 -2.295284 -1.203853
2.793191 -2.270882 -1.204488
2.960249 -2.237994 -1.205784
2.773128 -2.219460 -1.205719
2.789512 -2.267891 -1.202902
2.794183 -2.194428 -1.206041
2.800155 -2.185262 -1.205719
2.774309 -2.213432 -1.204755
2.801262 -2.179220 -1.204755
2.762011 -2.148685 -1.204928
2.875339 -2.173801 -1.206075
2.840909 -2.217067 -1.205757
2.879720 -2.163260 -1.205123
2.830325 -2.139769 -1.204433
2.840564 -2.209795 -1.204171
2.845830 -2.199910 -1.203536
2.538604 -2.394777 -1.201672
2.519303 -2.269324 -1.200703
2.535536 -2.326573 -1.201722
2.556063 -2.448568 -1.201540
2.561359 -2.223186 -1.201037
2.542045 -2.457673 -1.200255
2.542724 -2.311705 -1.200074
2.572274 -2.274505 -1.199085
2.564578 -2.281759 -1.198755
2.567989 -2.208302 -1.199368
2.605474 -2.473008 -1.201950
2.599308 -2.399821 -1.200898
2.603046 -2.323148 -1.201346
2.628253 -2.218374 -1.201063
2.601124 -2.175057 -1.200703
2.613434 -2.375991 -1.198969
2.597508 -2.172034 -1.199034
2.641239 -2.423565 -1.199411
2.639504 -2.348422 -1.199290
2.644650 -2.274225 -1.201021
2.664138 -2.399787 -1.199729
2.680938 -2.385287 -1.200681
2.690375 -2.378935 -1.201632
2.712156 -2.354073 -1.201633
2.730561 -2.414469 -1.201923
2.686063 -2.225160 -1.201021
2.723226 -2.179521 -1.201021
2.686677 -2.150269 -1.201722
2.691044 -2.140254 -1.200733
2.808120 -2.150187 -1.200576
2.652209 -2.259577 -1.199718
2.663302 -2.247958 -1.200044
2.670878 -2.157864 -1.199085
2.733239 -2.243111 -1.200255
2.710960 -2.190248 -1.200044
2.521450 -2.327937 -1.198425
2.535140 -2.241670 -1.198366
2.544720 -2.229358 -1.198033
2.550378 -2.152645 -1.198252
2.516863 -2.184564 -1.196563
2.544257 -2.370775 -1.197439
2.546320 -2.293660 -1.196777
2.546782 -2.149609 -1.196563
2.558257 -2.283175 -1.197436
2.567879 -2.422394 -1.198326
2.566616 -2.269502 -1.196447
2.566458 -2.126078 -1.196563
2.571060 -2.337467 -1.196463
2.585324 -2.182141 -1.198033
2.607335 -2.305507 -1.198416
2.600565 -2.236315 -1.197766
2.632639 -2.201411 -1.198425
2.548888 -2.353270 -1.194509
2.530197 -2.237299 -1.196030
2.549969 -2.213299 -1.195696
2.518467 -2.247664 -1.195362
2.605080 -2.219425 -1.195128
2.575274 -2.235263 -1.190843
2.525462 -2.171731 -1.195887
2.535430 -2.160086 -1.195887
2.560127 -2.201541 -1.195696
2.521894 -2.168663 -1.194197
2.551593 -2.133640 -1.194197
2.574519 -2.173021 -1.193025
2.602087 -2.135478 -1.192024
2.987561 -2.888402 -1.230922
2.983425 -2.884404 -1.229218
2.995282 -2.869317 -1.228650
2.991820 -2.866000 -1.227230
2.988983 -2.837019 -1.220698
3.009529 -2.839021 -1.225526
3.012484 -2.833088 -1.224958
2.981618 -2.778314 -1.226563
2.991558 -2.761966 -1.225410
2.997195 -2.750185 -1.224258
2.998606 -2.751480 -1.224834
3.025938 -2.725687 -1.225698
3.002734 -2.729922 -1.221375
3.005569 -2.732498 -1.222528
2.979694 -2.562341 -1.220268
2.980132 -2.586668 -1.225310
2.980919 -2.660389 -1.221529
2.977016 -2.489378 -1.223572
2.973358 -2.486320 -1.222068
2.990712 -2.660899 -1.223868
2.998145 -2.651078 -1.223575
2.999451 -2.555414 -1.223530
2.999064 -2.461269 -1.223271
3.007459 -2.659313 -1.227376
3.017363 -2.618983 -1.221529
3.024700 -2.649856 -1.229423
3.023863 -2.624625 -1.224160
3.028658 -2.604446 -1.221236
3.011909 -2.542200 -1.223827
3.025042 -2.529537 -1.224420
3.019913 -2.525249 -1.222344
3.032807 -2.932146 -1.229569
3.042109 -2.914174 -1.227889
3.050407 -2.816299 -1.229786
3.031101 -2.824424 -1.227230
3.031101 -2.824424 -1.227230
3.051969 -2.800445 -1.226946
3.044346 -2.889568 -1.223412
3.048436 -2.797203 -1.225526
3.039164 -2.712371 -1.225987
3.047310 -2.694551 -1.224258
3.046592 -2.693916 -1.223969
3.032590 -2.698159 -1.221664
3.051344 -2.774115 -1.221550
3.038809 -2.613176 -1.225329
3.034994 -2.421416 -1.224173
3.035179 -2.514371 -1.223827
3.045707 -2.594822 -1.223283
3.046718 -2.500377 -1.223827
3.034973 -2.413789 -1.222670
3.042289 -2.496742 -1.222048
3.045226 -2.391586 -1.220865
3.059440 -2.930777 -1.234885
3.072750 -2.898661 -1.231247
3.078489 -2.672039 -1.226851
3.079943 -2.869935 -1.227050
3.060567 -2.782500 -1.225242
3.073289 -2.375743 -1.224774
3.056912 -2.874870 -1.223132
3.071514 -2.862081 -1.223692
3.069066 -2.764536 -1.223538
3.057517 -2.678605 -1.223393
3.064749 -2.660113 -1.221376
3.060539 -2.583246 -1.224452
3.055228 -2.483920 -1.222641
3.053231 -2.577078 -1.221529
3.073138 -2.545817 -1.220067
3.062946 -2.271636 -1.220677
3.066300 -2.173636 -1.221235
2.976691 -2.165485 -1.213823
2.975473 -2.441907 -1.213648
2.978158 -2.467134 -1.219362
2.978227 -2.166602 -1.214449
2.973945 -2.234042 -1.208565
2.976995 -2.130982 -1.207246
2.991475 -2.524952 -1.215524
2.989639 -2.430595 -1.214851
2.984831 -2.344155 -1.214884
2.992760 -2.335572 -1.215189
2.989913 -2.246038 -1.215055
2.988708 -2.160236 -1.216015
2.984717 -2.136510 -1.210378
2.994472 -2.220851 -1.211346
3.005198 -2.905454 -1.218375
3.002219 -2.440823 -1.219963
3.006111 -2.338581 -1.219152
3.007468 -2.429803 -1.219061
3.017349 -2.223502 -1.217836
3.018667 -2.311404 -1.217018
3.002981 -2.403422 -1.212746
3.001216 -2.320028 -1.214274
2.997448 -2.317116 -1.212750
3.002130 -2.387668 -1.209438
3.026089 -2.354123 -1.208837
2.999941 -2.126596 -1.212570
3.017092 -2.194876 -1.212274
2.998974 -2.209961 -1.210419
3.014015 -2.192638 -1.211038
3.068878 -2.738891 -1.218426
3.042631 -2.473678 -1.217599
3.050949 -2.464932 -1.217896
3.063005 -2.451462 -1.218192
3.072007 -2.443243 -1.218786
3.067522 -2.439676 -1.217006
3.050339 -2.433658 -1.211669
3.042775 -2.374604 -1.216956
3.067530 -2.348819 -1.218159
3.055179 -2.361743 -1.217558
3.081885 -2.329952 -1.218159
3.083936 -2.421988 -1.217600
3.083743 -2.398974 -1.213151
3.079868 -2.313612 -1.214550
3.032032 -2.292263 -1.216713
3.031273 -2.291689 -1.216408
3.031436 -2.277230 -1.213665
3.037686 -2.195637 -1.217836
3.060093 -2.169236 -1.218763
3.081329 -2.227182 -1.217018
3.064595 -2.151306 -1.216600
3.072119 -2.135551 -1.215673
3.066010 -2.230463 -1.213665
3.028390 -2.274942 -1.212445
3.048433 -2.246408 -1.212140
3.043066 -2.242453 -1.210006
3.047526 -2.217016 -1.206348
3.079929 -2.204664 -1.212445
3.057471 -2.188587 -1.203604
3.036931 -2.173885 -1.213510
3.035384 -2.172778 -1.212892
3.094687 -2.991972 -1.234304
3.098142 -2.995313 -1.235682
3.097316 -2.967059 -1.229893
3.109117 -2.978364 -1.234579
3.090001 -2.583857 -1.231469
3.109955 -2.552274 -1.230007
3.115304 -2.858560 -1.232367
3.122805 -2.735803 -1.229786
3.124874 -2.840965 -1.230968
3.126060 -2.638549 -1.231174
