# .PCD v.7 - Point Cloud Data file format
VERSION .7
FIELDS x y z
SIZE 4 4 4
TYPE F F F
COUNT 1 1 1
WIDTH 1650
HEIGHT 1
POINTS 1650
DATA ascii
3.738715 -0.601565 -1.303900
3.735914 -0.601114 -1.302924
3.625032 -0.611832 -1.301847
3.783451 -0.638570 -1.302472
3.741051 -0.549069 -1.301947
3.558042 -0.690732 -1.301317
3.579372 -0.575926 -1.301655
3.406651 -0.704829 -1.300670
3.464161 -0.655979 -1.300708
3.508483 -0.664372 -1.299676
3.568354 -0.602266 -1.299289
3.677169 -0.609035 -1.301618
3.678068 -0.591806 -1.300959
3.682426 -0.557787 -1.300629
3.717376 -0.686223 -1.301621
3.721735 -0.645782 -1.300645
3.734904 -0.583331 -1.301621
3.727465 -0.629120 -1.301621
3.789941 -0.574073 -1.301187
3.549443 -0.700370 -1.298952
3.596896 -0.698275 -1.297507
3.453506 -0.681440 -1.298631
3.656051 -0.674902 -1.298321
3.406561 -0.672176 -1.298219
3.550086 -0.672250 -1.297262
3.554710 -0.673125 -1.298952
3.404010 -0.660830 -1.296468
3.651409 -0.674045 -1.296673
3.760879 -0.652575 -1.295722
3.367612 -0.810678 -1.295067
3.492474 -0.678003 -1.294888
3.641776 -0.689612 -1.294365
3.703045 -0.648392 -1.294459
3.416395 -0.630662 -1.298919
3.463588 -0.622905 -1.298285
3.410984 -0.597253 -1.294717
3.507134 -0.591933 -1.294546
3.563690 -0.618359 -1.298614
3.661319 -0.617956 -1.296673
3.708818 -0.625973 -1.295110
3.611083 -0.598089 -1.296172
3.520059 -0.583013 -1.298650
3.571756 -0.557850 -1.297938
3.617519 -0.582064 -1.297507
3.622954 -0.565846 -1.298509
3.560899 -0.589777 -1.295910
3.559859 -0.572786 -1.294559
3.510643 -0.564867 -1.294204
3.668627 -0.572980 -1.296673
3.617366 -0.564974 -1.296506
3.400572 -0.643938 -1.294016
3.391857 -0.669275 -1.292615
3.445924 -0.636113 -1.292747
3.643509 -0.637968 -1.291728
3.753629 -0.621698 -1.291544
3.583399 -0.678558 -1.291498
3.639606 -0.654561 -1.291398
3.457126 -0.583493 -1.293439
3.553505 -0.599759 -1.293883
3.501575 -0.590995 -1.292494
3.508564 -0.547981 -1.292494
3.711373 -0.562172 -1.292505
3.365524 -0.557418 -1.292454
3.360110 -0.567118 -1.291036
3.393210 -0.642543 -1.291214
3.403500 -0.574442 -1.290514
3.447009 -0.598113 -1.290670
3.455016 -0.555917 -1.291017
3.482631 -0.659476 -1.290100
3.436697 -0.634410 -1.289286
3.404107 -0.547726 -1.289113
3.440543 -0.602429 -1.288594
3.584630 -0.661718 -1.290831
3.539560 -0.619767 -1.290166
3.586855 -0.628048 -1.289496
3.746102 -0.632266 -1.289615
3.550369 -0.554510 -1.290166
2.421109 -0.841232 -1.277910
2.498428 -0.829622 -1.283989
2.462445 -0.817673 -1.279541
2.466182 -0.806333 -1.279541
2.497402 -0.803838 -1.279605
2.459891 -0.816826 -1.278214
2.551379 -0.834189 -1.280340
2.552613 -0.821609 -1.279048
2.526700 -0.813268 -1.280310
2.557228 -0.810126 -1.279479
2.529557 -0.801360 -1.279876
2.419028 -0.828052 -1.274787
2.480515 -0.823674 -1.274783
2.510945 -0.820969 -1.274228
2.442935 -0.836236 -1.273349
2.503721 -0.831380 -1.272490
2.481716 -0.811412 -1.273468
2.544321 -0.806037 -1.273021
2.423149 -0.804625 -1.273002
2.546280 -0.793783 -1.272160
2.434026 -0.771096 -1.273002
2.440724 -0.752668 -1.273448
2.386589 -0.735974 -1.272535
2.478791 -0.772743 -1.280425
2.465947 -0.768739 -1.273791
2.466580 -0.760642 -1.272907
2.499546 -0.779214 -1.276975
2.500207 -0.771012 -1.276098
2.490793 -0.789079 -1.274345
2.507268 -0.781621 -1.280920
2.529778 -0.788638 -1.278138
2.516938 -0.759290 -1.282235
2.514050 -0.762629 -1.281359
2.511504 -0.749252 -1.278290
2.530893 -0.763501 -1.275097
2.528045 -0.754187 -1.272490
2.535629 -0.781935 -1.279876
2.534891 -0.768951 -1.277703
2.536610 -0.731387 -1.273359
2.554741 -0.787829 -1.275174
2.558340 -0.776064 -1.275174
2.563606 -0.739171 -1.272591
2.593565 -0.821638 -1.283118
2.578908 -0.816994 -1.275867
2.594729 -0.808886 -1.281839
2.583370 -0.796657 -1.275014
2.598260 -0.788173 -1.280559
2.594271 -0.782620 -1.278000
2.614753 -0.815128 -1.277152
2.618750 -0.829616 -1.280956
2.625135 -0.818365 -1.282223
2.566208 -0.765572 -1.277326
2.567938 -0.766089 -1.278187
2.575081 -0.776831 -1.282923
2.608793 -0.778277 -1.283972
2.588859 -0.772330 -1.274161
2.567392 -0.748801 -1.275604
2.588163 -0.741953 -1.284214
2.617000 -0.750219 -1.283972
2.611501 -0.752980 -1.281839
2.598660 -0.732037 -1.273307
2.636539 -0.799785 -1.284759
2.632556 -0.794169 -1.282224
2.635404 -0.768638 -1.280111
2.637171 -0.756002 -1.279265
2.632525 -0.759042 -1.277575
2.633137 -0.719997 -1.272926
2.634885 -0.720475 -1.273771
2.643965 -0.837604 -1.278587
2.644831 -0.837878 -1.279005
2.643457 -0.824077 -1.276493
2.645402 -0.789198 -1.287295
2.666865 -0.831374 -1.287797
2.671645 -0.797027 -1.285285
2.657254 -0.819442 -1.281936
2.660997 -0.807205 -1.281936
2.653708 -0.747544 -1.285605
2.675685 -0.767043 -1.283192
2.654241 -0.791835 -1.276912
2.659921 -0.775788 -1.277331
2.667791 -0.822691 -1.272279
2.671319 -0.752505 -1.279424
2.662289 -0.767624 -1.277331
2.666949 -0.751274 -1.277331
2.670880 -0.730318 -1.276493
2.708924 -0.790081 -1.285964
2.702282 -0.806167 -1.285134
2.689579 -0.838455 -1.283890
2.695306 -0.804086 -1.281817
2.706409 -0.775851 -1.283061
2.707323 -0.762647 -1.281817
2.707323 -0.762647 -1.281817
2.716582 -0.783278 -1.288452
2.716943 -0.751879 -1.284720
2.726568 -0.827095 -1.283496
2.730346 -0.814539 -1.283496
2.717356 -0.729603 -1.282231
2.744735 -0.791396 -1.286782
2.748576 -0.787939 -1.288014
2.735292 -0.797771 -1.283496
2.739886 -0.771820 -1.282264
2.738131 -0.771326 -1.281443
2.756590 -0.762851 -1.288425
2.772215 -0.808540 -1.285694
2.778660 -0.782743 -1.285288
2.780471 -0.769460 -1.284474
2.758685 -0.709032 -1.283086
2.758447 -0.822923 -1.281627
2.760150 -0.695883 -1.282264
2.802373 -0.836027 -1.286775
2.791847 -0.832887 -1.281943
2.839479 -0.813998 -1.284371
2.870671 -0.808662 -1.281338
2.847609 -0.802166 -1.286364
2.844077 -0.801171 -1.284769
2.788987 -0.762613 -1.287321
2.814867 -0.792942 -1.286775
2.822632 -0.771812 -1.287581
2.816722 -0.779492 -1.285970
2.808700 -0.791205 -1.283956
2.847485 -0.778608 -1.283573
2.849267 -0.765020 -1.282776
2.790588 -0.735514 -1.284881
2.861514 -0.740142 -1.285168
2.786291 -0.748112 -1.284474
2.817314 -0.756441 -1.283554
2.819880 -0.743235 -1.283151
2.781880 -0.746927 -1.282441
2.793895 -0.704391 -1.282847
2.872703 -0.691540 -1.284769
2.874214 -0.673273 -1.283573
2.857998 -0.720552 -1.281579
2.827207 -0.703571 -1.281943
2.863441 -0.698611 -1.281579
2.721724 -0.821069 -1.280621
2.830296 -0.816066 -1.280782
2.689835 -0.815953 -1.280987
2.714892 -0.837216 -1.279800
2.790754 -0.813947 -1.279123
2.746289 -0.828479 -1.277153
2.747067 -0.819528 -1.276339
2.777887 -0.838012 -1.276707
2.725103 -0.812975 -1.281032
2.691084 -0.811826 -1.280987
2.792359 -0.805127 -1.278720
2.766246 -0.793004 -1.281220
2.843067 -0.763356 -1.279984
2.855331 -0.719880 -1.280383
2.789466 -0.703274 -1.280814
2.781777 -0.714967 -1.278780
2.816409 -0.723868 -1.279526
2.813523 -0.727729 -1.278720
2.779792 -0.719004 -1.278373
2.844882 -0.731186 -1.277193
2.786292 -0.693389 -1.278373
2.811722 -0.708885 -1.275901
2.868135 -0.620993 -1.275997
2.692904 -0.736340 -1.272279
2.732420 -0.733648 -1.274460
2.746005 -0.692317 -1.275693
2.740823 -0.708925 -1.275282
2.849522 -0.685959 -1.274402
2.708816 -0.682941 -1.273108
2.710016 -0.674407 -1.272693
2.811163 -0.676725 -1.272277
2.683849 -0.654795 -1.273563
2.712207 -0.661713 -1.272279
2.815262 -0.659464 -1.272277
2.861498 -0.642571 -1.275199
2.886590 -0.813147 -1.288444
2.914751 -0.701662 -1.288049
3.035392 -0.671845 -1.287730
3.077383 -0.666298 -1.288162
2.916317 -0.683135 -1.286865
3.195446 -0.691861 -1.287885
3.197686 -0.676955 -1.287519
3.334915 -0.658039 -1.287848
3.427289 -0.648997 -1.286863
3.635182 -0.630764 -1.288431
3.480084 -0.642419 -1.288048
3.494871 -0.562330 -1.288390
3.299541 -0.609091 -1.287974
2.902593 -0.731796 -1.286075
2.891027 -0.776233 -1.286075
2.952543 -0.682072 -1.286287
2.952688 -0.677336 -1.285896
3.068862 -0.679253 -1.285890
3.475464 -0.641566 -1.286337
3.571652 -0.659322 -1.286158
2.885652 -0.789044 -1.285286
3.238396 -0.659664 -1.285205
3.148166 -0.681624 -1.285093
3.261567 -0.550486 -1.286292
3.346278 -0.564784 -1.285722
3.385151 -0.608799 -1.285961
3.393234 -0.562008 -1.285961
3.482152 -0.604211 -1.286338
3.200337 -0.631485 -1.284953
3.435848 -0.579901 -1.285478
3.386055 -0.587536 -1.284911
3.303746 -0.547186 -1.285466
3.298532 -0.572350 -1.285107
3.389646 -0.572103 -1.285261
3.439269 -0.553383 -1.285133
3.022499 -0.678725 -1.283137
3.145442 -0.681034 -1.283981
3.142275 -0.695502 -1.283981
2.986414 -0.670622 -1.283494
3.103690 -0.671994 -1.283028
3.235982 -0.638518 -1.282668
3.278995 -0.647005 -1.282957
3.280048 -0.636765 -1.282599
3.324066 -0.645310 -1.282888
3.514270 -0.648730 -1.283069
3.565371 -0.641210 -1.282819
3.143091 -0.665397 -1.281758
3.147030 -0.651114 -1.282129
3.148103 -0.641271 -1.281758
2.899565 -0.698006 -1.281338
3.141274 -0.665013 -1.281017
3.147262 -0.636073 -1.281017
3.184367 -0.658839 -1.280922
3.286612 -0.622358 -1.284032
3.238840 -0.628765 -1.283031
3.194860 -0.630404 -1.282754
3.071725 -0.625713 -1.282483
3.241700 -0.613853 -1.283030
3.469131 -0.623902 -1.282917
3.570168 -0.619483 -1.283154
3.335352 -0.578739 -1.282533
3.430207 -0.568131 -1.282710
3.069052 -0.620267 -1.280968
3.073719 -0.596709 -1.280968
3.241741 -0.598421 -1.281943
3.328056 -0.598531 -1.281116
3.511660 -0.631551 -1.281042
3.284851 -0.590760 -1.281165
3.291925 -0.555610 -1.281523
2.884067 -0.741257 -1.279365
2.895124 -0.668808 -1.276601
3.056578 -0.661794 -1.279454
2.934219 -0.658901 -1.276518
2.965047 -0.656275 -1.273439
2.961220 -0.664964 -1.272666
3.005042 -0.650635 -1.273570
2.982457 -0.645746 -1.279626
3.049631 -0.645612 -1.275288
3.005293 -0.636225 -1.272422
3.024273 -0.640243 -1.280458
2.979082 -0.630676 -1.276919
2.937387 -0.635987 -1.275737
3.053476 -0.631758 -1.275667
2.973668 -0.629530 -1.274599
3.014610 -0.614078 -1.274336
3.096440 -0.670425 -1.280031
3.098585 -0.655975 -1.279656
3.185542 -0.643810 -1.280189
3.099756 -0.641333 -1.278907
3.228667 -0.637075 -1.279768
3.105343 -0.632561 -1.280405
3.102674 -0.627062 -1.278907
3.314137 -0.627570 -1.277928
3.142865 -0.620144 -1.278052
3.166738 -0.670403 -1.275057
3.211998 -0.649157 -1.274332
3.080444 -0.652135 -1.272164
3.179425 -0.617231 -1.275791
3.269184 -0.619058 -1.277223
3.352839 -0.618930 -1.274755
3.099159 -0.611521 -1.276284
3.319749 -0.612821 -1.278990
3.097340 -0.611162 -1.275535
3.223385 -0.610385 -1.275782
3.060977 -0.603987 -1.276424
3.058253 -0.603449 -1.275288
3.275671 -0.604685 -1.278657
3.193202 -0.604670 -1.280188
3.024666 -0.596822 -1.277014
3.017415 -0.595391 -1.273953
3.143879 -0.595330 -1.276570
3.218827 -0.594191 -1.272882
3.017414 -0.585779 -1.273188
3.104670 -0.587905 -1.276659
3.185887 -0.588111 -1.276157
3.187716 -0.588448 -1.276890
3.035509 -0.574809 -1.279693
3.320643 -0.581435 -1.277219
3.147499 -0.581024 -1.276941
3.276499 -0.573706 -1.276865
3.156538 -0.567684 -1.279535
3.241603 -0.567595 -1.279769
3.286402 -0.554678 -1.279373
3.241349 -0.547074 -1.278319
3.056426 -0.578770 -1.272638
3.099136 -0.572096 -1.273288
3.025403 -0.558485 -1.274336
3.064518 -0.565706 -1.274910
3.098999 -0.557336 -1.272164
3.139278 -0.579507 -1.273606
3.149054 -0.551390 -1.275459
3.189268 -0.553391 -1.275058
2.255955 -0.834625 -1.265540
2.231708 -0.825655 -1.265226
2.255125 -0.834318 -1.265074
2.283712 -0.829000 -1.264729
2.316905 -0.837029 -1.268768
2.336398 -0.835976 -1.264363
2.294992 -0.829112 -1.270270
2.372800 -0.824446 -1.266127
2.501157 -0.830528 -1.271187
2.534221 -0.828579 -1.271729
2.504096 -0.818729 -1.270752
2.731028 -0.828448 -1.270645
2.525242 -0.838526 -1.269146
2.593336 -0.834716 -1.270390
2.660911 -0.829518 -1.270205
2.523529 -0.837957 -1.268286
2.557901 -0.823311 -1.267335
2.553226 -0.834793 -1.266909
2.462638 -0.826135 -1.266893
2.454972 -0.840356 -1.265577
2.276838 -0.802866 -1.270196
2.267287 -0.811248 -1.266937
2.266453 -0.810950 -1.266471
2.322803 -0.807075 -1.266479
2.297453 -0.798267 -1.266114
2.291245 -0.807946 -1.264729
2.413033 -0.809494 -1.268986
2.473173 -0.808619 -1.269084
2.418053 -0.802933 -1.270325
2.384902 -0.800057 -1.267927
2.574005 -0.802426 -1.271601
2.614137 -0.779871 -1.272081
2.453645 -0.789754 -1.271137
2.516020 -0.784349 -1.271187
2.543695 -0.792977 -1.270868
2.256069 -0.783887 -1.269920
2.509808 -0.795103 -1.269883
2.273821 -0.790056 -1.266471
2.247729 -0.780990 -1.265226
2.404021 -0.761590 -1.271078
2.467479 -0.748502 -1.271580
2.584866 -0.753898 -1.269895
2.522866 -0.752642 -1.269883
2.408085 -0.742603 -1.270178
2.528302 -0.737401 -1.270318
2.502249 -0.729802 -1.271276
2.501885 -0.721374 -1.269961
2.800184 -0.705976 -1.270666
2.257982 -0.772925 -1.268981
2.493417 -0.743857 -1.269084
2.651122 -0.733665 -1.268120
2.529071 -0.725013 -1.269014
2.468487 -0.719955 -1.268042
2.594601 -0.709460 -1.268615
2.656864 -0.726485 -1.269795
2.228347 -0.774255 -1.267550
2.424734 -0.755891 -1.266309
2.458321 -0.741607 -1.266272
2.433029 -0.738051 -1.267648
2.614451 -0.736486 -1.266587
2.561826 -0.708953 -1.267855
2.587183 -0.715970 -1.266056
2.591112 -0.708506 -1.266909
2.226886 -0.762281 -1.264710
2.312678 -0.744381 -1.264729
2.444428 -0.774391 -1.264503
2.458866 -0.733549 -1.265388
2.582990 -0.727623 -1.265629
2.616066 -0.723963 -1.265742
2.558765 -0.699662 -1.265272
2.680445 -0.719692 -1.264814
2.713726 -0.715256 -1.264193
2.682314 -0.645707 -1.271888
2.673262 -0.652212 -1.268539
2.695069 -0.692681 -1.268132
2.703367 -0.659557 -1.268132
2.705377 -0.651260 -1.268132
2.802849 -0.683828 -1.269457
2.767547 -0.666226 -1.267391
2.778013 -0.641754 -1.269425
2.807562 -0.644045 -1.267444
2.883037 -0.647408 -1.269496
2.840634 -0.651632 -1.267224
2.848971 -0.639758 -1.269617
2.593472 -0.696340 -1.266482
2.662017 -0.671142 -1.265608
2.762828 -0.674064 -1.266171
2.799594 -0.673940 -1.267041
2.732633 -0.666697 -1.267068
2.735990 -0.640894 -1.265835
2.691170 -0.678492 -1.264814
2.725996 -0.678384 -1.265425
2.727318 -0.665400 -1.264603
2.870176 -0.658408 -1.265154
2.661419 -0.662314 -1.264352
2.697415 -0.649343 -1.264400
2.806030 -0.630115 -1.265430
2.808709 -0.630717 -1.266638
2.841967 -0.629033 -1.265629
2.886121 -0.624887 -1.268707
2.884472 -0.610647 -1.266733
2.778572 -0.601601 -1.265764
2.845728 -0.616142 -1.266028
2.816238 -0.596202 -1.266638
2.889971 -0.588689 -1.267128
2.850380 -0.589738 -1.265629
2.887268 -0.583528 -1.265549
2.811761 -0.595254 -1.264624
2.821625 -0.574767 -1.267041
2.859286 -0.564189 -1.267224
2.855761 -0.577160 -1.266826
2.857487 -0.563834 -1.266427
3.040576 -0.643695 -1.271502
2.920747 -0.655876 -1.270658
2.920293 -0.632286 -1.268313
2.992400 -0.647898 -1.268213
2.924973 -0.619221 -1.269094
2.919570 -0.618078 -1.266750
2.998237 -0.620329 -1.268213
2.993815 -0.605061 -1.265151
2.954931 -0.597203 -1.264158
3.147171 -0.641081 -1.265162
3.115528 -0.614750 -1.266936
3.127429 -0.607136 -1.271012
3.170348 -0.600342 -1.271026
2.940309 -0.556781 -1.270267
2.970314 -0.586097 -1.269572
2.975628 -0.563469 -1.269958
3.050865 -0.563186 -1.269230
3.053425 -0.549140 -1.269230
3.047332 -0.577047 -1.268851
3.091916 -0.585490 -1.271415
3.176655 -0.571302 -1.271392
3.214190 -0.578052 -1.269983
2.965761 -0.575751 -1.266865
2.968214 -0.547928 -1.265705
2.966400 -0.547594 -1.264931
3.010866 -0.555802 -1.268213
3.123802 -0.591528 -1.268418
3.083636 -0.569235 -1.266919
3.171919 -0.555394 -1.268461
2.308581 -0.826023 -1.262816
2.251857 -0.825264 -1.261815
2.298905 -0.834515 -1.259611
2.215034 -0.834973 -1.258653
2.116574 -0.831408 -1.260505
2.254379 -0.818352 -1.261815
2.283327 -0.816987 -1.262421
2.302721 -0.823927 -1.259611
2.304812 -0.812730 -1.258695
2.333881 -0.835076 -1.263001
2.368582 -0.822981 -1.263876
2.423419 -0.829556 -1.263176
2.340626 -0.813267 -1.262547
2.369810 -0.811205 -1.262526
2.395320 -0.819937 -1.262293
2.388140 -0.829777 -1.260509
2.368965 -0.810916 -1.262076
2.424212 -0.813244 -1.260965
2.478102 -0.831322 -1.260760
2.236289 -0.800157 -1.262878
2.434640 -0.796020 -1.263176
2.377176 -0.789359 -1.262526
2.264626 -0.786861 -1.261350
2.207079 -0.797352 -1.260924
2.314718 -0.792346 -1.260069
2.402158 -0.785400 -1.260062
2.341621 -0.785538 -1.258462
2.291032 -0.784238 -1.260574
2.217283 -0.781866 -1.263290
2.183627 -0.781314 -1.259222
2.290192 -0.783951 -1.260112
2.264873 -0.775284 -1.259487
2.320225 -0.770448 -1.259153
2.349271 -0.768108 -1.259369
2.459947 -0.779308 -1.258563
2.284657 -0.735362 -1.262746
2.364735 -0.749144 -1.263909
2.342500 -0.730256 -1.263732
2.366456 -0.737724 -1.263001
2.292173 -0.714567 -1.263212
2.376185 -0.708883 -1.263455
2.335725 -0.739954 -1.261900
2.256688 -0.737838 -1.262409
2.459481 -0.709148 -1.262292
2.369487 -0.718776 -1.261639
2.302483 -0.752811 -1.261035
2.284642 -0.723771 -1.260884
2.522139 -0.689647 -1.261194
2.170608 -0.754194 -1.260671
2.193216 -0.762049 -1.260653
2.300797 -0.752259 -1.260112
2.255857 -0.726092 -1.260061
2.340376 -0.709945 -1.259611
2.308422 -0.719632 -1.258726
2.239604 -0.766634 -1.258653
2.280424 -0.722435 -1.258556
2.347577 -0.767554 -1.258461
2.380185 -0.754039 -1.258475
2.421821 -0.722497 -1.260062
2.483980 -0.712087 -1.260317
2.417879 -0.729407 -1.259170
2.518275 -0.696901 -1.260326
2.553751 -0.673091 -1.259676
2.472043 -0.639404 -1.259196
2.523154 -0.665027 -1.258588
2.618618 -0.690189 -1.262783
2.584404 -0.681171 -1.260511
2.611038 -0.701057 -1.260670
2.640007 -0.708835 -1.260166
2.647927 -0.667590 -1.258910
2.756615 -0.672548 -1.263324
2.678146 -0.692713 -1.260667
2.631759 -0.642086 -1.263206
2.663772 -0.641244 -1.263096
2.622363 -0.661145 -1.261093
2.727573 -0.656603 -1.263782
2.729948 -0.630650 -1.262139
2.688945 -0.629874 -1.258594
2.619102 -0.651783 -1.258557
2.719596 -0.654682 -1.260085
2.754952 -0.631977 -1.258443
2.670504 -0.612604 -1.263096
2.771314 -0.613394 -1.263731
2.764962 -0.620893 -1.261697
2.691815 -0.617493 -1.258594
2.727539 -0.612489 -1.259264
2.727539 -0.612489 -1.259264
2.634189 -0.604274 -1.260248
2.739197 -0.606286 -1.263782
2.695516 -0.605298 -1.259009
2.669751 -0.599513 -1.261422
2.644901 -0.593932 -1.264051
2.732156 -0.591552 -1.259264
2.730374 -0.591166 -1.258443
2.710752 -0.586917 -1.263985
2.739310 -0.579916 -1.261317
2.670720 -0.578250 -1.259747
2.779479 -0.566182 -1.262917
2.675040 -0.553461 -1.259328
2.869589 -0.644388 -1.263575
2.867965 -0.634787 -1.261996
2.870855 -0.621582 -1.261996
2.804518 -0.607219 -1.262611
2.811781 -0.581752 -1.263416
2.783797 -0.549294 -1.263324
2.853802 -0.554016 -1.264035
2.781108 -0.548763 -1.262104
2.785064 -0.679489 -1.261402
2.790517 -0.644643 -1.260194
2.803662 -0.566631 -1.258583
2.808934 -0.554254 -1.259791
2.878205 -0.567922 -1.260417
2.880836 -0.559264 -1.260812
2.869191 -0.607412 -1.260022
2.839596 -0.578428 -1.260047
2.920600 -0.576287 -1.263624
2.922354 -0.567325 -1.263624
2.997384 -0.567589 -1.263620
2.960224 -0.560553 -1.263384
2.905669 -0.643132 -1.263234
2.914271 -0.602957 -1.263234
2.888795 -0.547027 -1.263180
2.943701 -0.637354 -1.262998
2.948539 -0.610047 -1.262611
2.916084 -0.575396 -1.261671
2.886990 -0.546685 -1.262390
2.915889 -0.552157 -1.259717
2.945886 -0.581277 -1.259131
3.065524 -0.595118 -1.261675
1.650110 -1.077121 -1.243322
1.666641 -1.098882 -1.247430
1.659796 -1.029775 -1.244386
1.648674 -0.991618 -1.249402
1.650787 -1.006734 -1.243700
1.657654 -0.997019 -1.244241
1.657186 -0.959038 -1.243411
1.659095 -0.997886 -1.245323
1.666481 -0.995379 -1.248569
1.680136 -1.017573 -1.251371
1.686348 -1.007245 -1.251371
1.678913 -1.009806 -1.248147
1.678191 -1.009371 -1.247610
1.678608 -0.971435 -1.247487
1.670526 -1.018771 -1.246535
1.687701 -1.061485 -1.245840
1.677330 -1.040654 -1.245456
1.680515 -1.035503 -1.245456
1.683818 -1.026877 -1.244389
1.695641 -1.026964 -1.250792
1.699509 -1.022193 -1.251326
1.694983 -0.980911 -1.247610
1.703658 -1.006976 -1.248658
1.692667 -1.093825 -1.247127
1.694903 -1.051556 -1.246370
1.703803 -1.071612 -1.245548
1.695762 -1.081132 -1.244496
1.707456 -1.059345 -1.243443
1.693924 -1.011770 -1.244923
1.707078 -1.026746 -1.244780
1.706998 -0.987865 -1.244389
1.711116 -1.004314 -1.251860
1.722934 -1.018369 -1.250609
1.721108 -0.981983 -1.250259
1.708272 -1.034614 -1.247960
1.713237 -1.062931 -1.247653
1.719697 -0.974196 -1.247057
1.720199 -1.009645 -1.246370
1.718435 -1.047989 -1.245548
1.713443 -1.012760 -1.243720
1.722647 -1.036110 -1.243970
1.739715 -1.094199 -1.247131
1.731997 -1.067225 -1.246681
1.733461 -1.097702 -1.245056
1.743490 -1.081701 -1.245056
1.739327 -1.028059 -1.250284
1.742626 -1.048126 -1.246159
1.740434 -1.046808 -1.244591
1.744289 -1.093346 -1.249206
1.745236 -1.057001 -1.250339
1.747081 -1.065458 -1.253996
1.746396 -1.083504 -1.247131
1.746943 -1.032561 -1.243546
1.751168 -1.079038 -1.248168
1.756485 -1.038201 -1.250339
1.750838 -1.027628 -1.244069
1.724892 -0.956277 -1.244389
1.724902 -0.959744 -1.245456
1.733149 -0.992379 -1.247960
1.733471 -1.024598 -1.246074
1.735873 -1.018844 -1.245548
1.734406 -1.017983 -1.244496
1.738510 -0.974313 -1.245310
1.740009 -0.968150 -1.244250
1.742975 -0.966302 -1.245310
1.747404 -0.958271 -1.245310
1.753355 -1.003949 -1.250284
1.756586 -0.984443 -1.246074
1.749817 -0.991259 -1.244496
1.767028 -1.096304 -1.249482
1.765275 -1.087730 -1.245877
1.768066 -1.078256 -1.244332
1.759035 -1.072748 -1.250243
1.760855 -1.066461 -1.249206
1.775383 -1.067829 -1.244847
1.766632 -1.055198 -1.248687
1.774673 -1.041617 -1.248687
1.772282 -0.971915 -1.250811
1.764731 -1.010463 -1.246159
1.765572 -0.968235 -1.246075
1.768621 -1.001911 -1.245636
1.767019 -0.958478 -1.243970
1.783787 -1.099138 -1.246532
1.793400 -1.052609 -1.249482
1.785892 -1.089127 -1.244487
1.793277 -1.078592 -1.244998
1.795840 -1.072644 -1.244487
1.788723 -1.024200 -1.250762
1.788954 -1.013430 -1.247650
1.784527 -0.978630 -1.247204
1.788199 -0.959342 -1.243546
1.653629 -1.068597 -1.242254
1.668940 -1.046116 -1.242788
1.684811 -1.088748 -1.241338
1.668849 -1.078433 -1.241601
1.643479 -1.047799 -1.241699
1.665186 -1.047324 -1.241187
1.710390 -1.090458 -1.243024
1.711566 -1.083837 -1.241456
1.772445 -1.066062 -1.242787
1.717258 -1.076402 -1.241979
1.721189 -1.035233 -1.242917
1.716550 -1.039628 -1.241865
1.761901 -1.041402 -1.241943
1.781572 -1.045667 -1.241242
1.687913 -1.015219 -1.242788
1.695650 -1.002243 -1.242788
1.640873 -1.018035 -1.242077
1.705852 -1.018895 -1.241601
1.743075 -0.994516 -1.241865
1.747161 -1.025470 -1.241456
1.771411 -1.025142 -1.241943
1.787709 -0.994691 -1.241424
1.680931 -0.986597 -1.241699
1.664638 -0.977034 -1.241536
1.677222 -0.960357 -1.243159
1.743686 -0.956232 -1.242661
1.649824 -0.968339 -1.242321
1.716047 -0.961724 -1.241187
1.641605 -1.082375 -1.240654
1.644548 -1.041398 -1.240087
1.648832 -0.998614 -1.239913
1.654779 -1.026663 -1.240625
1.662449 -1.085175 -1.240541
1.659460 -0.980852 -1.239913
1.706389 -0.977057 -1.240654
1.678749 -0.985316 -1.240087
1.672575 -1.066349 -1.239481
1.672575 -1.066349 -1.239481
1.693506 -1.032786 -1.239481
1.692932 -0.959034 -1.239550
1.688501 -0.966815 -1.239550
1.760429 -1.040532 -1.240906
1.766234 -1.069718 -1.240727
1.761202 -0.997709 -1.240412
1.719295 -1.066690 -1.239889
1.742419 -0.987068 -1.239234
1.747438 -1.095320 -1.239181
1.765031 -0.989176 -1.239889
1.793526 -1.023301 -1.240727
1.795911 -1.017371 -1.240212
1.778540 -1.007530 -1.240387
1.768819 -0.980630 -1.239366
1.794099 -1.060433 -1.239886
1.791530 -0.982470 -1.239868
1.647893 -1.032923 -1.239013
1.749466 -1.052241 -1.238830
1.760664 -1.033395 -1.238830
1.684093 -1.044850 -1.238421
1.698357 -1.021501 -1.238421
1.745031 -1.097542 -1.238666
1.774666 -1.048947 -1.238666
1.674266 -0.989604 -1.239013
1.732524 -1.002637 -1.238708
1.790031 -0.981648 -1.238831
1.749195 -0.973261 -1.238707
1.755170 -1.001417 -1.238321
1.772470 -1.011287 -1.238312
1.780174 -0.997663 -1.238312
1.724415 -0.976869 -1.238421
1.647946 -1.064925 -1.237985
1.644879 -1.034552 -1.237938
1.654331 -1.019369 -1.237938
1.672814 -0.988745 -1.237938
1.656564 -0.979141 -1.237750
1.656963 -1.049260 -1.237452
1.707188 -0.967110 -1.237985
1.782967 -1.072390 -1.237840
1.748001 -1.051360 -1.237793
1.733389 -1.035342 -1.237277
1.707765 -1.002347 -1.237361
1.719200 -0.980894 -1.236832
1.646304 -1.092734 -1.234712
1.652310 -1.053429 -1.236385
1.650357 -1.088145 -1.235242
1.682547 -1.065461 -1.232393
1.682855 -1.072904 -1.235024
1.683681 -1.037454 -1.235772
1.692925 -1.093991 -1.235187
1.712063 -1.091525 -1.232086
1.766141 -1.054905 -1.236091
1.661520 -1.030844 -1.233716
1.653757 -0.970648 -1.233422
1.688505 -0.991043 -1.235317
1.746041 -1.010459 -1.236231
1.762842 -0.980855 -1.236231
1.768827 -0.970020 -1.236232
1.746223 -0.968103 -1.235550
1.665949 -0.953902 -1.246679
1.653202 -0.936527 -1.245722
1.672119 -0.954032 -1.238290
1.641605 -0.936622 -1.239143
1.655755 -0.944695 -1.237964
1.675770 -0.949312 -1.238831
1.675038 -0.948897 -1.238290
1.704531 -0.934760 -1.238476
1.655169 -0.917623 -1.240788
1.661339 -0.901154 -1.239143
1.706061 -0.915276 -1.245323
1.706540 -0.905444 -1.242618
1.706540 -0.905444 -1.242618
1.717522 -0.921425 -1.241699
1.666205 -0.893894 -1.239691
1.660832 -0.874674 -1.242410
1.680517 -0.836230 -1.242410
1.694326 -0.898964 -1.245589
1.704484 -0.877720 -1.245045
1.697580 -0.887385 -1.243955
1.698831 -0.845344 -1.244077
1.716536 -0.897294 -1.245864
1.717164 -0.894271 -1.245323
1.708172 -0.863108 -1.242866
1.692245 -0.881294 -1.239054
1.646551 -0.922777 -1.237498
1.654975 -0.907583 -1.237498
1.652775 -0.906377 -1.235853
1.654267 -0.937131 -1.234697
1.657099 -0.928688 -1.233607
1.661406 -0.924415 -1.234696
1.643528 -0.914468 -1.233111
1.642644 -0.891013 -1.236891
1.640848 -0.880290 -1.232475
1.650038 -0.875466 -1.236339
1.652423 -0.863780 -1.234131
1.653315 -0.822695 -1.233921
1.659573 -0.890336 -1.234756
1.674083 -0.871835 -1.237498
1.667346 -0.884649 -1.237498
1.672002 -0.874014 -1.236949
1.677333 -0.863739 -1.236949
1.667912 -0.842765 -1.236891
1.665022 -0.923085 -1.236331
1.664391 -0.883081 -1.235305
1.667833 -0.878361 -1.235853
1.664841 -0.912994 -1.233063
1.667079 -0.829544 -1.232475
1.667550 -0.904523 -1.231974
1.677122 -0.933160 -1.234504
1.672375 -0.822599 -1.233579
1.673893 -0.813800 -1.231923
1.716529 -0.910744 -1.237938
1.716529 -0.910744 -1.237938
1.679085 -0.900804 -1.237420
1.683213 -0.893068 -1.237420
1.699636 -0.895110 -1.235586
1.710793 -0.880969 -1.237750
1.709816 -0.841015 -1.237420
1.715248 -0.866684 -1.236126
1.695048 -0.939732 -1.234714
1.700094 -0.932327 -1.235252
1.707055 -0.879044 -1.235045
1.682971 -0.847136 -1.235304
1.699006 -0.855208 -1.235241
1.692980 -0.865235 -1.234697
1.702173 -0.847007 -1.234697
1.702173 -0.847007 -1.234697
1.677816 -0.930178 -1.233963
1.680751 -0.885164 -1.233607
1.690985 -0.825320 -1.233660
1.690745 -0.821993 -1.232563
1.724826 -0.945890 -1.241187
1.731500 -0.949549 -1.245990
1.726187 -0.936329 -1.239053
1.742698 -0.934931 -1.235772
1.740540 -0.916652 -1.241187
1.742202 -0.924366 -1.244389
1.720807 -0.906259 -1.239013
1.726569 -0.902539 -1.241162
1.723077 -0.887294 -1.234714
1.741822 -0.896947 -1.248147
1.749241 -0.910976 -1.244389
1.749655 -0.900981 -1.241721
1.743344 -0.911308 -1.241187
1.746386 -0.892529 -1.237452
1.752083 -0.871842 -1.234784
1.757759 -0.953454 -1.249550
1.757174 -0.942697 -1.233972
1.752975 -0.930082 -1.240011
1.758822 -0.926280 -1.242131
1.757146 -0.918522 -1.238951
1.758553 -0.915826 -1.238951
1.775638 -0.935136 -1.241865
1.766166 -0.947522 -1.240286
1.762245 -0.935000 -1.234498
1.762245 -0.935000 -1.234498
1.771042 -0.911994 -1.244780
1.765011 -0.908888 -1.240541
1.764015 -0.901539 -1.237891
1.768902 -0.893794 -1.238421
1.764211 -0.888029 -1.234182
1.769038 -0.880279 -1.234712
1.769038 -0.880279 -1.234712
1.782050 -0.945508 -1.236232
1.776929 -0.953296 -1.235709
1.776992 -0.928896 -1.240812
1.781432 -0.927741 -1.242917
1.783414 -0.918365 -1.241338
1.781680 -0.910567 -1.238181
1.787950 -0.920701 -1.244496
1.794101 -0.951902 -1.244592
1.794829 -0.903441 -1.243443
1.792116 -0.891762 -1.238708
1.792116 -0.891762 -1.238708
1.723802 -0.838065 -1.232881
1.748665 -0.843530 -1.236864
1.736239 -0.817923 -1.234504
1.746566 -0.809731 -1.238290
1.729474 -0.801806 -1.237964
1.724859 -0.745659 -1.232015
1.733907 -0.771773 -1.232518
1.739379 -0.761456 -1.233063
1.742165 -0.801206 -1.233422
1.748253 -0.755773 -1.236875
1.756618 -0.769003 -1.233422
1.749561 -0.778740 -1.231799
1.760910 -0.761244 -1.233963
1.760910 -0.761244 -1.233963
1.761467 -0.800283 -1.232565
1.763003 -0.800980 -1.233640
1.762464 -0.755507 -1.233422
1.763491 -0.840699 -1.232649
1.770401 -0.834017 -1.234784
1.765148 -0.747060 -1.232881
1.774014 -0.862477 -1.232592
1.776652 -0.857030 -1.232592
1.789763 -0.853224 -1.238951
1.792137 -0.844256 -1.237891
1.775486 -0.823138 -1.234784
1.776466 -0.816980 -1.233717
1.793436 -0.831460 -1.235242
1.777448 -0.768393 -1.233640
1.784040 -0.748611 -1.232565
1.785453 -0.801288 -1.234784
1.785453 -0.801288 -1.234784
1.806132 -1.093883 -1.256247
1.852426 -1.094908 -1.254901
1.838794 -1.086850 -1.258188
1.852796 -1.087471 -1.252886
1.854286 -1.088345 -1.253893
1.835431 -1.077279 -1.253620
1.831716 -1.075098 -1.251082
1.862250 -1.062512 -1.250367
1.868312 -1.024577 -1.255142
1.868312 -1.024577 -1.255142
1.839763 -1.031059 -1.254713
1.876373 -1.051576 -1.254397
1.856548 -1.040465 -1.253620
1.859731 -1.034764 -1.253620
1.805760 -1.045020 -1.253603
1.820147 -1.053346 -1.251134
1.824230 -1.044531 -1.250623
1.832008 -1.037820 -1.252668
1.849491 -1.047724 -1.252097
1.806831 -1.034569 -1.251027
1.839227 -1.019664 -1.251134
1.810827 -1.025821 -1.250512
1.836041 -1.062544 -1.249559
1.837726 -1.097663 -1.248352
1.813421 -1.090707 -1.246514
1.842015 -1.088754 -1.247848
1.834657 -1.020813 -1.249089
1.824530 -1.033584 -1.247555
1.836425 -1.051514 -1.246514
1.842744 -1.043901 -1.247529
1.852705 -1.072187 -1.248352
1.879006 -1.072072 -1.249000
1.854534 -1.028150 -1.249052
1.860240 -1.053813 -1.246840
1.802237 -1.065243 -1.245510
1.799567 -1.056229 -1.241419
1.798085 -1.055359 -1.240397
1.814540 -1.083813 -1.244992
1.816541 -1.073698 -1.242961
1.808661 -1.031936 -1.238863
1.799701 -0.997751 -1.248687
1.814944 -1.006202 -1.246907
1.837872 -1.007884 -1.247044
1.815797 -0.995778 -1.244332
1.805060 -1.011610 -1.243302
1.805159 -1.004400 -1.241242
1.822048 -0.999206 -1.236307
1.866948 -1.012682 -1.251082
1.871589 -1.004079 -1.251082
1.879426 -1.008284 -1.243818
1.844002 -1.000235 -1.248066
1.864755 -1.000413 -1.246514
1.879995 -0.997475 -1.253620
1.858430 -0.997020 -1.254713
1.842244 -0.977445 -1.253088
1.842258 -0.988344 -1.256178
1.875428 -0.995052 -1.250574
1.856166 -0.984832 -1.250112
1.855407 -0.984429 -1.249600
1.831683 -0.982671 -1.248967
1.822621 -0.988638 -1.245877
1.805802 -0.979514 -1.246612
1.843284 -0.988894 -1.244487
1.870045 -0.977538 -1.242961
1.796506 -0.974472 -1.252429
1.820084 -0.976448 -1.253356
1.847447 -0.965726 -1.252572
1.814810 -0.973619 -1.249725
1.862903 -0.970169 -1.249600
1.820782 -0.966058 -1.250762
1.831929 -0.954039 -1.253356
1.845717 -0.950448 -1.247422
1.871054 -0.956244 -1.250111
1.854862 -0.955157 -1.253603
1.803803 -0.949969 -1.249294
1.839340 -0.947164 -1.255431
1.832500 -0.943641 -1.250762
1.850151 -0.945561 -1.248452
1.823998 -0.960605 -1.238666
1.825585 -0.968607 -1.241757
1.820614 -0.951699 -1.246612
1.808609 -0.952500 -1.240387
1.863929 -0.941809 -1.242442
1.797371 -0.953637 -1.234680
1.798397 -0.940086 -1.243546
1.805131 -0.940083 -1.247204
1.810195 -0.932156 -1.247726
1.812470 -0.933327 -1.249294
1.811082 -0.911622 -1.242501
1.811204 -0.915168 -1.243546
1.816843 -0.928538 -1.250339
1.834625 -0.937626 -1.250243
1.823660 -0.921462 -1.239868
1.818631 -0.894538 -1.241979
1.819834 -0.888207 -1.240934
1.800431 -0.878737 -1.239760
1.822366 -0.879082 -1.239889
1.827329 -0.888397 -1.245114
1.833886 -0.884639 -1.247726
1.801777 -0.875974 -1.239760
1.822996 -0.845164 -1.243443
1.799861 -0.868225 -1.236603
1.797563 -0.867117 -1.235024
1.805372 -0.860665 -1.237655
1.807625 -0.899480 -1.237277
1.809151 -0.900239 -1.238321
1.808545 -0.851986 -1.237129
1.805165 -0.820136 -1.238951
1.801305 -0.818382 -1.236302
1.797519 -0.826663 -1.236302
1.805052 -0.810084 -1.236302
1.813219 -0.833883 -1.235024
1.809881 -0.839084 -1.234498
1.813941 -0.824123 -1.232919
1.807770 -0.791396 -1.233122
1.820095 -0.905685 -1.233643
1.820095 -0.905685 -1.233643
1.821253 -0.916742 -1.237274
1.838308 -0.925326 -1.236606
1.832612 -0.884024 -1.234680
1.838002 -0.886624 -1.238312
1.824209 -0.859365 -1.235709
1.819431 -0.809840 -1.232393
1.823587 -0.798320 -1.231867
1.826703 -0.799684 -1.233972
1.831925 -0.791944 -1.235024
1.833247 -0.775882 -1.231867
1.840049 -0.898073 -1.242462
1.845723 -0.907864 -1.248168
1.840245 -0.915711 -1.235061
1.844146 -0.854970 -1.245636
1.838976 -0.876685 -1.236236
1.839127 -0.818607 -1.233619
1.846459 -0.808333 -1.235187
1.849376 -0.799488 -1.234664
1.848593 -0.799150 -1.234141
1.850651 -0.899735 -1.248687
1.849835 -0.857607 -1.237274
1.853669 -0.911773 -1.241242
1.853980 -0.832042 -1.233124
1.854592 -0.873678 -1.244018
1.856320 -0.833092 -1.234680
1.858671 -0.854785 -1.241424
1.859073 -0.939356 -1.251542
1.849941 -0.633250 -1.233716
1.854269 -0.811752 -1.240412
1.854668 -0.784948 -1.234141
1.866907 -0.939722 -1.243464
1.863391 -0.909465 -1.245877
1.864013 -0.906231 -1.245362
1.862748 -0.926909 -1.237840
1.864396 -0.909956 -1.234261
1.866266 -0.889695 -1.242272
1.865688 -0.878905 -1.239181
1.870442 -0.930738 -1.242953
1.869100 -0.901625 -1.246907
1.872434 -0.903234 -1.236818
1.873442 -0.882558 -1.244332
1.867458 -0.831217 -1.240387
1.872181 -0.850583 -1.235576
1.862602 -0.768170 -1.234664
1.865290 -0.806368 -1.233124
1.875711 -0.869604 -1.242272
1.875711 -0.869604 -1.242272
1.878371 -0.863845 -1.242272
1.879433 -0.836547 -1.236091
1.879572 -0.822829 -1.245056
1.876143 -0.794037 -1.236236
1.876994 -0.787616 -1.235199
1.884386 -1.090522 -1.257000
1.889822 -1.070571 -1.254000
1.895097 -1.073559 -1.257500
1.897381 -1.098042 -1.252947
1.907853 -1.088530 -1.255428
1.908917 -1.081388 -1.253939
1.912695 -1.083528 -1.256420
1.891274 -1.037169 -1.257924
1.882704 -1.043767 -1.255405
1.899261 -1.064403 -1.257000
1.908977 -1.046878 -1.257000
1.913014 -1.037669 -1.256500
1.898080 -1.052292 -1.253000
1.911086 -1.063338 -1.249969
1.897695 -1.018085 -1.255908
1.890647 -0.984618 -1.255650
1.907752 -0.997249 -1.255405
1.914716 -1.027216 -1.254500
1.900851 -0.989933 -1.249863
1.903851 -0.980384 -1.248856
1.919496 -0.999643 -1.249500
1.888264 -0.972357 -1.251082
1.912794 -0.962819 -1.248855
1.918751 -0.954776 -1.249863
1.880497 -0.961070 -1.243976
1.882902 -0.969596 -1.247529
1.884046 -0.999624 -1.243818
1.888139 -1.050571 -1.247500
1.890151 -1.002863 -1.247848
1.896171 -0.976429 -1.243818
1.883362 -0.951628 -1.242961
1.884050 -0.948351 -1.242454
1.884537 -0.937751 -1.239916
1.880680 -0.935832 -1.237378
1.890379 -0.929829 -1.240931
1.907183 -1.011900 -1.246500
1.910543 -0.965363 -1.248352
1.914860 -1.092529 -1.247309
1.901465 -0.971786 -1.245329
1.915926 -0.935106 -1.243314
1.915804 -0.931411 -1.242307
1.907760 -0.920274 -1.235254
1.900645 -0.934879 -1.235253
1.918448 -0.936337 -1.232500
1.884819 -0.909208 -1.244998
1.888983 -0.900525 -1.244998
1.887666 -0.889259 -1.241419
1.883106 -0.855547 -1.242787
1.881608 -0.918357 -1.233318
1.887181 -0.867897 -1.235795
1.887664 -0.917730 -1.236363
1.883487 -0.824543 -1.247650
1.880984 -0.813152 -1.243499
1.884804 -0.797702 -1.241943
1.884955 -0.770630 -1.235718
1.889998 -0.890357 -1.242953
1.893280 -0.849679 -1.246907
1.892498 -0.849328 -1.246392
1.893168 -0.828781 -1.241757
1.894601 -0.819039 -1.240211
1.890470 -0.911934 -1.236363
1.891355 -0.800475 -1.234031
1.894742 -0.812210 -1.238667
1.899260 -0.845372 -1.236818
1.898642 -0.783033 -1.234031
1.911019 -0.885973 -1.253179
1.902443 -0.881997 -1.247555
1.915932 -0.902574 -1.247529
1.915180 -0.887902 -1.243469
1.906804 -0.866313 -1.246021
1.908418 -0.856473 -1.244487
1.919395 -0.861400 -1.251645
1.902425 -0.906932 -1.241439
1.902109 -0.864180 -1.242953
1.906578 -0.898168 -1.241439
1.908856 -0.909998 -1.233239
1.915368 -0.902309 -1.234750
1.914926 -0.859394 -1.236363
1.900235 -0.831874 -1.246392
1.907143 -0.807156 -1.244332
1.903624 -0.833358 -1.236307
1.902587 -0.764247 -1.231971
1.908081 -0.633593 -1.232051
1.913071 -0.837494 -1.242442
1.914539 -0.827658 -1.240908
1.915391 -0.803727 -1.235795
1.912221 -0.802397 -1.233750
1.916155 -0.739143 -1.234031
1.921031 -1.004190 -1.251500
1.920298 -0.955546 -1.250871
1.923306 -0.990402 -1.249000
1.920226 -0.988816 -1.247000
1.924702 -1.078661 -1.248294
1.924864 -1.067141 -1.257909
1.924426 -1.055350 -1.254435
1.925342 -0.892614 -1.250067
1.925655 -0.928907 -1.246840
1.927107 -0.984891 -1.249500
1.927136 -1.014922 -1.257500
1.927425 -0.875682 -1.247022
1.928745 -0.816299 -1.246021
1.928763 -1.073174 -1.248786
1.930320 -1.093513 -1.255188
1.932315 -1.048138 -1.256420
1.934210 -1.026240 -1.251458
1.951265 -1.016187 -1.257413
1.955149 -1.006799 -1.256916
1.937465 -0.891022 -1.256157
1.946100 -0.968385 -1.255000
1.939192 -0.881028 -1.254635
1.949224 -1.092404 -1.251359
1.951060 -0.897274 -1.252382
1.944000 -1.054477 -1.251248
1.948477 -0.939916 -1.249000
1.951804 -1.085994 -1.250870
1.940434 -0.954450 -1.248500
1.942767 -0.992894 -1.246992
1.948822 -0.980955 -1.246992
1.939593 -0.913721 -1.250367
1.942028 -0.900349 -1.248352
1.953719 -0.876803 -1.248856
1.949663 -0.885785 -1.248856
1.942426 -0.839714 -1.246514
1.951984 -0.826134 -1.248544
1.924662 -0.972497 -1.245000
1.933407 -0.896353 -1.242810
1.930449 -0.994080 -1.241037
1.938791 -0.979636 -1.241534
1.920849 -0.830386 -1.244998
1.921622 -0.813284 -1.241419
1.922001 -0.862569 -1.240931
1.927787 -0.858070 -1.242961
1.934258 -0.787326 -1.242442
1.937866 -0.830696 -1.241946
1.929070 -0.844498 -1.240424
1.934517 -0.836295 -1.241439
1.927491 -0.843806 -1.239408
1.926891 -0.936801 -1.237000
1.931481 -0.775854 -1.238352
1.930559 -0.817067 -1.234841
1.934175 -0.759760 -1.236307
1.920320 -0.785089 -1.234261
1.941837 -0.925721 -1.242000
1.941797 -0.814808 -1.240424
1.943017 -0.937282 -1.245500
1.943727 -0.915668 -1.240500
1.941002 -0.814474 -1.239916
1.943673 -0.780751 -1.233826
1.944261 -0.872559 -1.242810
1.946860 -0.917144 -1.242500
1.945166 -0.802221 -1.239408
1.952451 -0.905181 -1.242500
1.950875 -0.868346 -1.245329
1.953793 -0.855321 -1.243818
1.954595 -0.827240 -1.237772
1.955329 -0.845292 -1.242306
1.950011 -0.797227 -1.240931
1.953267 -0.784605 -1.239916
1.948837 -0.793261 -1.239408
1.955255 -0.774973 -1.238901
1.953350 -0.746614 -1.231796
1.664375 -1.053954 -1.231002
1.718553 -0.921978 -1.230515
1.736719 -0.931724 -1.231532
1.676445 -0.847077 -1.231466
1.765811 -0.831854 -1.231582
1.734617 -0.893237 -1.231049
1.757318 -0.847704 -1.231049
1.653244 -0.851334 -1.230819
1.643784 -0.830574 -1.230588
1.648569 -0.858548 -1.230268
1.671039 -0.854022 -1.230370
1.719783 -0.878933 -1.230416
1.723335 -0.831311 -1.230717
1.684084 -0.943811 -1.229879
1.658774 -0.834957 -1.229163
1.682442 -0.827551 -1.229273
1.675442 -0.918808 -1.229094
1.679652 -0.911088 -1.229094
1.658958 -0.909768 -1.228706
1.674704 -0.918403 -1.228553
1.723637 -0.867606 -1.229341
1.767354 -0.862593 -1.228883
1.742997 -0.867321 -1.228381
1.755795 -0.846969 -1.229981
1.720305 -0.829849 -1.228553
1.741109 -0.830029 -1.228804
1.690281 -0.916853 -1.225043
1.648795 -0.849043 -1.227508
1.650650 -0.843601 -1.226956
1.698821 -0.829144 -1.227616
1.723224 -0.847610 -1.223431
1.726348 -0.839303 -1.222894
1.740478 -0.849475 -1.221977
1.655093 -0.807802 -1.230588
1.647360 -0.819732 -1.229477
1.719111 -0.752583 -1.230370
1.712382 -0.806684 -1.229250
1.687195 -0.775925 -1.229164
1.704600 -0.736901 -1.229163
1.647385 -0.810307 -1.226699
1.653551 -0.797648 -1.226699
1.700278 -0.788271 -1.228725
1.716539 -0.795810 -1.228706
1.718972 -0.790540 -1.228706
1.687711 -0.766773 -1.226956
1.718719 -0.743005 -1.227628
1.727902 -0.823733 -1.231258
1.744148 -0.821649 -1.228267
1.732069 -0.803009 -1.228012
1.744862 -0.783071 -1.230176
1.753747 -0.813060 -1.231491
1.750870 -0.805209 -1.227730
1.764744 -0.818158 -1.227313
1.762823 -0.791132 -1.230953
1.760515 -0.790096 -1.229341
1.761389 -0.784005 -1.228267
1.735166 -0.750115 -1.227616
1.739772 -0.745780 -1.229250
1.765394 -0.772845 -1.227730
1.767712 -0.773859 -1.229341
1.740096 -0.736458 -1.227072
1.740096 -0.736458 -1.227072
1.759676 -0.738387 -1.227471
1.755692 -0.705241 -1.228706
1.704109 -0.812391 -1.225982
1.648105 -0.801263 -1.224477
1.698842 -0.819496 -1.224893
1.681961 -0.811352 -1.224339
1.695080 -0.742063 -1.224748
1.700183 -0.772439 -1.224339
1.708349 -0.760397 -1.225984
1.719538 -0.781233 -1.226527
1.720819 -0.772281 -1.224893
1.718684 -0.736740 -1.225984
1.722826 -0.729149 -1.226532
1.737189 -0.779628 -1.224766
1.755798 -0.736760 -1.224766
1.732051 -0.786918 -1.223684
1.693450 -0.785105 -1.223790
1.684167 -0.802884 -1.223242
1.664365 -0.802864 -1.223092
1.731285 -0.786570 -1.223143
1.695090 -0.779556 -1.223242
1.692788 -0.741060 -1.223092
1.687087 -0.794768 -1.222694
1.750432 -0.740832 -1.222602
1.695065 -0.817674 -1.222170
1.718740 -0.809679 -1.222061
1.686331 -0.794412 -1.222146
1.742016 -0.712192 -1.222170
1.735387 -0.728195 -1.222170
1.739823 -0.717533 -1.222170
1.762991 -0.708173 -1.222061
1.643816 -0.792952 -1.219476
1.644445 -0.783947 -1.217254
1.650292 -0.777434 -1.218921
1.651796 -0.778143 -1.220032
1.643178 -0.746541 -1.217363
1.655568 -0.752170 -1.215032
1.648242 -0.764146 -1.213921
1.649823 -0.758739 -1.213365
1.667158 -0.785380 -1.219781
1.675182 -0.808082 -1.219404
1.659614 -0.781826 -1.214261
1.672702 -0.775486 -1.220333
1.671945 -0.775135 -1.219781
1.658596 -0.753546 -1.217254
1.657495 -0.743862 -1.213921
1.664594 -0.747048 -1.207638
1.663073 -0.746365 -1.206534
1.710375 -0.777070 -1.219991
1.711638 -0.768161 -1.218357
1.697616 -0.761868 -1.219952
1.702257 -0.745205 -1.218307
1.690285 -0.767942 -1.217211
1.738898 -0.761245 -1.220979
1.754046 -0.862771 -1.221464
1.645083 -0.738292 -1.216244
1.647634 -0.739437 -1.206698
1.641302 -0.736595 -1.213449
1.649135 -0.734040 -1.206143
1.650290 -0.722455 -1.215126
1.640524 -0.730207 -1.211212
1.642695 -0.719130 -1.209534
1.678291 -0.725528 -1.221699
1.669133 -0.721569 -1.215032
1.662307 -0.739903 -1.204326
1.662748 -0.727909 -1.212810
1.683860 -0.721812 -1.212606
1.661225 -0.727242 -1.211699
1.641777 -0.703773 -1.216221
1.642715 -0.695243 -1.214533
1.643476 -0.695565 -1.215096
1.645988 -0.711563 -1.209534
1.642943 -0.710247 -1.207297
1.651397 -0.698918 -1.209534
1.649106 -0.697948 -1.207857
1.655826 -0.694810 -1.211212
1.663697 -0.713169 -1.209476
1.678447 -0.710366 -1.217810
1.671555 -0.707449 -1.212810
1.682918 -0.706178 -1.219476
1.679350 -0.704681 -1.205430
1.663471 -0.698018 -1.216804
1.666051 -0.699101 -1.207254
1.682608 -0.693937 -1.216143
1.688527 -0.729953 -1.217573
1.765990 -0.728325 -1.216983
1.753289 -0.723087 -1.219897
1.710504 -0.723933 -1.217759
1.726107 -0.724301 -1.215634
1.691772 -0.716005 -1.215917
1.708861 -0.717064 -1.215018
1.697805 -0.712425 -1.218677
1.704234 -0.715123 -1.211728
1.684860 -0.713080 -1.210950
1.750828 -0.715795 -1.216652
1.753482 -0.713742 -1.217733
1.717094 -0.708160 -1.217759
1.739222 -0.707938 -1.219447
1.759089 -0.706606 -1.219356
1.720807 -0.703521 -1.218856
1.707674 -0.695097 -1.220332
1.715688 -0.698359 -1.214469
1.700431 -0.695191 -1.215917
1.720435 -0.691079 -1.215566
1.694435 -0.698815 -1.213157
1.718107 -0.690144 -1.213921
1.640919 -0.601367 -1.212383
1.644460 -0.608394 -1.216373
1.646131 -0.646614 -1.215508
1.646002 -0.608964 -1.217513
1.646561 -0.546753 -1.214835
1.652165 -0.663656 -1.212282
1.650837 -0.636798 -1.216074
1.653569 -0.600254 -1.220363
1.647804 -0.589594 -1.214093
1.650832 -0.573594 -1.212383
1.641029 -0.688601 -1.211719
1.645854 -0.629082 -1.210976
1.641351 -0.592971 -1.210673
1.650056 -0.573324 -1.211813
1.655474 -0.549713 -1.210103
1.655474 -0.549713 -1.210103
1.645681 -0.563330 -1.206683
1.644432 -0.551653 -1.203263
1.648965 -0.604315 -1.207012
1.658526 -0.684005 -1.210093
1.658404 -0.651435 -1.224570
1.659069 -0.666429 -1.217347
1.657986 -0.624990 -1.217773
1.657930 -0.598961 -1.211543
1.658118 -0.567587 -1.215803
1.659798 -0.585283 -1.220933
1.661823 -0.652778 -1.215659
1.659470 -0.613947 -1.216074
1.660882 -0.602909 -1.214375
1.665520 -0.669020 -1.210652
1.665446 -0.642433 -1.226836
1.663362 -0.653382 -1.216784
1.664108 -0.615663 -1.219472
1.665206 -0.616069 -1.208905
1.666289 -0.669329 -1.211212
1.665797 -0.642569 -1.215659
1.668782 -0.629059 -1.225703
1.666743 -0.596370 -1.216640
1.665191 -0.595815 -1.215508
1.666712 -0.579111 -1.212676
1.665021 -0.558560 -1.207012
1.665155 -0.578570 -1.211543
1.665461 -0.570100 -1.209843
1.667800 -0.570901 -1.211543
1.668882 -0.643759 -1.217910
1.669034 -0.661528 -1.222412
1.674709 -0.640111 -1.220724
1.676835 -0.620371 -1.217347
1.678319 -0.659258 -1.216244
1.682332 -0.648947 -1.216244
1.683052 -0.634438 -1.224663
1.680282 -0.615793 -1.218472
1.671024 -0.589242 -1.217773
1.674739 -0.547566 -1.210976
1.674060 -0.598988 -1.210593
1.671438 -0.603841 -1.210031
1.674460 -0.590454 -1.208905
1.678260 -0.574482 -1.207779
1.681753 -0.564173 -1.207779
1.681123 -0.558230 -1.206091
1.670637 -0.554748 -1.209843
1.683879 -0.649544 -1.217363
1.684243 -0.685559 -1.215032
1.685066 -0.676872 -1.213365
1.685498 -0.689086 -1.216699
1.685844 -0.668191 -1.211698
1.684956 -0.602887 -1.218472
1.685045 -0.559532 -1.208905
1.684922 -0.550895 -1.218340
1.686031 -0.551258 -1.207779
1.686919 -0.635896 -1.227477
1.686307 -0.668375 -1.223514
1.686807 -0.662592 -1.222396
1.688962 -0.645559 -1.219600
1.686338 -0.662408 -1.210587
1.687641 -0.677906 -1.203774
1.689595 -0.651749 -1.210032
1.695118 -0.588981 -1.221849
1.697029 -0.580906 -1.221287
1.695019 -0.627098 -1.219040
1.695378 -0.621325 -1.217922
1.696497 -0.615838 -1.217363
1.695312 -0.627207 -1.207809
1.693068 -0.605789 -1.212889
1.696926 -0.681636 -1.210398
1.697352 -0.654741 -1.215587
1.696620 -0.598268 -1.213449
1.700448 -0.640996 -1.225751
1.714760 -0.622467 -1.218921
1.708939 -0.626294 -1.216143
1.703102 -0.641997 -1.216143
1.697439 -0.613234 -1.217363
1.700874 -0.608582 -1.218481
1.712585 -0.618706 -1.216699
1.713692 -0.613169 -1.216143
1.700958 -0.556139 -1.218472
1.709536 -0.593991 -1.220718
1.721735 -0.664147 -1.221437
1.721316 -0.648863 -1.217573
1.734650 -0.641761 -1.224196
1.718014 -0.552977 -1.217363
1.719263 -0.597370 -1.216143
1.722543 -0.563196 -1.222396
1.724354 -0.590260 -1.217810
1.729713 -0.574364 -1.217810
1.731097 -0.580726 -1.220032
1.735500 -0.567432 -1.220032
1.734307 -0.549426 -1.215587
1.752977 -0.648541 -1.225435
1.740526 -0.637871 -1.226956
1.753388 -0.642584 -1.224339
1.739339 -0.631390 -1.224748
1.743011 -0.623659 -1.225300
1.752207 -0.636061 -1.222146
1.738792 -0.655450 -1.218307
1.742781 -0.644769 -1.218307
1.748461 -0.631667 -1.218856
1.748046 -0.674296 -1.216723
1.745144 -0.597376 -1.220884
1.743566 -0.596836 -1.219781
1.740801 -0.604854 -1.219781
1.745614 -0.585597 -1.218677
1.752942 -0.582078 -1.222540
1.748985 -0.580764 -1.219781
1.736685 -0.550179 -1.217254
1.754017 -0.573486 -1.221436
1.756081 -0.610163 -1.218856
1.757600 -0.644128 -1.215634
1.758265 -0.629117 -1.224339
1.762202 -0.630526 -1.227080
1.759379 -0.548472 -1.219781
1.764268 -0.652718 -1.221625
1.766627 -0.653591 -1.223259
1.768720 -0.614555 -1.227628
1.768365 -0.605325 -1.225435
1.771393 -0.643025 -1.223804
1.765131 -0.586125 -1.219404
1.768676 -0.682254 -1.219356
1.763968 -0.680438 -1.216110
1.768348 -0.666592 -1.215569
1.701704 -0.591270 -1.215126
1.704670 -0.630669 -1.214476
1.699990 -0.640823 -1.213921
1.701270 -0.582358 -1.212889
1.710724 -0.559331 -1.214008
1.700552 -0.667991 -1.209294
1.701328 -0.668296 -1.209846
1.708212 -0.611208 -1.212254
1.701837 -0.565108 -1.209534
1.700729 -0.656044 -1.206534
1.715854 -0.646803 -1.213709
1.726189 -0.623621 -1.214813
1.723570 -0.664854 -1.211180
1.717901 -0.674806 -1.210083
1.717445 -0.635395 -1.212053
1.713359 -0.604170 -1.213921
1.714551 -0.595733 -1.212810
1.714127 -0.586759 -1.210587
1.724190 -0.572530 -1.213921
1.726016 -0.564331 -1.213365
1.716554 -0.674277 -1.197661
1.741004 -0.671579 -1.211822
1.728726 -0.660758 -1.213373
1.729401 -0.651910 -1.211728
1.728094 -0.618322 -1.214813
1.733711 -0.602391 -1.214813
1.727775 -0.609254 -1.212606
1.740543 -0.569081 -1.212053
1.744579 -0.615179 -1.212825
1.749376 -0.598825 -1.212276
