# .PCD v0.7 - Point Cloud Data file format
VERSION 0.7
FIELDS x y z intensities index
SIZE 4 4 4 4 4
TYPE F F F F F
COUNT 1 1 1 1 1
WIDTH 1089
HEIGHT 1
VIEWPOINT 0 0 0 1 0 0 0
POINTS 1089
DATA ascii
2.0296905 -0.15177263 -0.86846572 3227.2 426.20001
2.0864713 -0.1533512 -0.88071769 3303.75 424.75
2.1353593 -0.15479806 -0.89615095 3355 424
2.164876 -0.15705778 -0.89895511 3653.5 423
4.0876193 -0.18192855 -0.87339795 2834.3335 268
4.1838231 -0.19153844 -0.8568005 2740 270
1.7499473 -0.1276409 -0.89497334 3689 200
1.7828463 -0.13606507 -0.87974006 3592.3 298.39999
1.821925 -0.13829155 -0.87238014 3313.9629 394.62964
1.8782959 -0.14303777 -0.87660265 2917.1667 434.5
1.9149917 -0.14607123 -0.88068581 3133 433
1.9900507 -0.14866652 -0.86448359 3465.6667 427.66669
2.0257213 -0.14855802 -0.89124203 3477 428.5
2.0735934 -0.14749493 -0.88661146 3169.2 425.80002
2.1250799 -0.13717787 -0.89373857 3386.6001 424
2.1759417 -0.10887505 -0.87228006 3694.8335 419.5
4.0922823 -0.11202608 -0.89442432 2901.5 376
4.1166229 -0.11555211 -0.87401992 2714.2 332.80002
4.1755176 -0.11109918 -0.87706542 2932.5 374
1.8204789 -0.075598292 -0.89050591 3406.1111 335
1.8652929 -0.077505574 -0.89540184 2571.5 284
1.9282119 -0.0988914 -0.89909142 2474 210
2.0916004 -0.080934033 -0.8922261 3251.5 322.5
2.1258297 -0.080300905 -0.87554669 4027.5835 322.41669
2.1578624 -0.097581901 -0.89820915 3413 221
4.0926304 -0.072881088 -0.87452632 2891 311.80002
4.10392 -0.072947547 -0.88048458 2904.5 295.25
4.1701598 -0.074599937 -0.87941587 2915 374
1.8287951 -0.024610993 -0.89243042 3546.8889 283.44446
1.8743374 -0.023248898 -0.89738262 2744 323
2.1331625 -0.041223194 -0.89602721 3205 220.5
4.0912337 -0.0198169 -0.88458669 2887.75 295
4.1183071 -0.024370801 -0.87169647 2888.1667 322
4.1937208 -0.00094018644 -0.86014885 2787 271
1.8284589 0.026269149 -0.89074695 3394.375 264
1.8736985 0.030399304 -0.89521569 2502.1667 322.16669
1.9087766 0.040421404 -0.89301276 2268 210
2.1007211 0.01419089 -0.8974703 3651 219
4.0920525 0.024796873 -0.87346613 2884 269
4.1082087 0.024927575 -0.87670636 2906.5 374.5
4.1712828 0.025474295 -0.85474187 2898 271
1.8281362 0.079705946 -0.8876996 3318.0911 269.45456
1.8800882 0.070742622 -0.89252126 2484.3335 208.33334
1.9198241 0.079428785 -0.89636487 2366.75 210
2.0472155 0.086035252 -0.89390415 2992 427
2.0789001 0.085549086 -0.89368272 2962.3335 356.33334
2.1245203 0.081557199 -0.89574701 3229.6001 260.80002
4.0950255 0.074179024 -0.8850795 2911 322.16669
4.1107168 0.076072142 -0.87168759 2900.8889 304.22223
4.173234 0.083860353 -0.85163784 2840.5 271
1.8314568 0.11878072 -0.88857967 3154 275.70001
1.8875878 0.11782356 -0.89274812 2508.5 208.25
1.9260813 0.11344448 -0.8928349 2310.8889 210.33333
1.9708292 0.11468059 -0.89395696 2523.25 212.5
2.0329194 0.1260891 -0.89279723 2950.25 321.25
2.0741284 0.11480574 -0.88826782 2924.7859 277.57144
2.1269491 0.11685897 -0.88762033 3077.3335 254.5
4.0953083 0.12275807 -0.87679702 2910.7144 299.14288
4.1153164 0.12735301 -0.87031198 2890.1431 329.57144
4.1878676 0.11649749 -0.85138941 2726.5 271
1.8308678 0.17505333 -0.89316815 2931.3335 439.33334
1.8723089 0.19488814 -0.89951462 2229 438
2.074554 0.17872313 -0.89458823 2909.75 427
2.1126015 0.18318139 -0.89454114 2962.6667 425.33334
4.0958157 0.16434586 -0.87831175 2899.5 375.5
4.1640286 0.17889732 -0.88281447 2711 375
1.8410853 0.22163229 -0.89625961 2895 440
1.8736647 0.22229399 -0.8994652 2662 438.5
1.9010963 0.2221632 -0.89952379 2495 437
2.0902424 0.21973568 -0.89407158 2867 427
2.1133585 0.21976671 -0.8946631 3113 426
3.2475853 0.20990963 -0.88000774 126 390
3.274353 0.23863466 -0.88160557 1025 390
1.8367836 0.26580316 -0.89786118 3012 441.5
1.8735604 0.26079342 -0.89824241 2683.3335 439.33334
1.9295712 0.26567155 -0.89915097 2719 436.5
2.0846896 0.27750114 -0.8928234 2871 428.5
2.1148934 0.26348099 -0.89547408 2914.5 427
3.289181 0.27113539 -0.89330119 1551 391
3.308275 0.29988071 -0.89089447 1461 391
1.850632 0.31041154 -0.89815164 2840 442
1.9245777 0.32167825 -0.8975029 2786.8 438.20001
1.9563103 0.32412481 -0.8965115 2889 436.5
2.0334272 0.33657306 -0.89124864 2874.5 432.5
2.0710437 0.31877032 -0.89176029 2866.8 430.20001
2.117744 0.32298583 -0.89583981 2898.5 428.5
1.837822 0.37157708 -0.89534706 2915.5 444.5
1.876102 0.37215364 -0.89723289 2805.5 442.5
1.9190891 0.3714692 -0.89617288 2837.6667 440
1.9773562 0.38168052 -0.89082712 2861.8 436.80002
2.0271995 0.38512951 -0.89213043 2891 434.5
2.0780053 0.37493297 -0.89128906 2844.6001 431.60001
2.1249232 0.38543841 -0.89409339 3088.5 430
2.6273541 0.39832935 -0.89313507 2255 411
3.263566 0.37076676 -0.87485808 757.5 392.5
1.8444886 0.43426868 -0.88985813 3111.6667 446
1.8728129 0.41363844 -0.88666952 2891.1431 443.28574
1.9253545 0.4121922 -0.89076465 2922.6667 440.66669
1.9600941 0.40155435 -0.89192271 2852.5 438.5
2.0839028 0.41558072 -0.88834602 2963 432.5
2.118726 0.4311485 -0.87334675 2877.4001 430.20001
2.1619821 0.42454889 -0.87368405 2499 428
2.2300801 0.4341124 -0.89406496 2327 427
1.8404311 0.45555466 -0.86572528 2930.6667 445
1.8692777 0.46736723 -0.86728716 3172.3335 444
4.0846701 0.52170914 -0.884736 2881 382.5
4.137465 0.50948292 -0.86486554 2548 380.5
4.1425333 0.62667263 -0.87223947 2767 384
4.1197658 0.84369808 -0.86228609 2884 391
4.1241136 0.87794846 -0.87156075 2893 392.5
4.1268368 0.91256797 -0.87994361 2828 394
2.9268208 1.0888495 -0.86868739 3046 429.5
2.9204428 1.1103756 -0.88618338 3086.5 431.5
3.0233409 1.1080239 -0.88495123 2996 428
4.1387391 1.1290473 -0.87277925 2843.3335 401.66669
4.1545939 1.104911 -0.88993317 2395 401
2.9667165 1.1502085 -0.86332589 3389 431
4.1251621 1.1712288 -0.88697618 2841.3335 404
2.7588346 1.2492086 -0.88067478 3098 444
4.1347532 1.2174003 -0.86645103 2836.6667 405
2.7327957 1.2619687 -0.88972306 3127.6667 446
2.7519431 1.2984717 -0.85927778 2867 446
2.8105226 1.2609503 -0.88948166 3383 443
3.1490829 1.2931583 -0.85814399 3000 432
4.1376209 1.2745808 -0.87005848 2854 407.33334
2.8287046 1.3499076 -0.89467198 3250 447
3.1315756 1.3205264 -0.87661326 3056.75 434.5
4.145093 1.3225527 -0.88430011 2824 409.5
3.1791298 1.3759876 -0.85615033 2946 435
4.1358547 1.3810103 -0.86519372 2814.5 411.5
4.1730666 1.367691 -0.85693741 1843 410
2.719213 1.4426788 -0.89581919 921 456
4.1423745 1.4181349 -0.88887972 2846.5 413.5
2.6129501 1.4779665 -0.85801554 2206 461
2.9211698 1.4655576 -0.85245657 2835.6667 448
4.1473999 1.4556916 -0.85392451 2819 414
4.1553235 1.4854915 -0.87176347 2832 415.5
2.6276441 1.5290703 -0.88861412 2232 464
4.1430635 1.5170021 -0.89050257 2809.5 417.5
2.6105883 1.581615 -0.85797715 2222 466.5
4.1461678 1.5636067 -0.85698491 2813 418.5
4.1574244 1.5958588 -0.87505645 2820 420
2.6166122 1.6224264 -0.88079613 2216.6667 469
4.1692867 1.6192906 -0.88820755 2811 421
2.6159425 1.6944317 -0.85680568 2176 472
4.1590886 1.6802126 -0.85836577 2776 423
2.6037488 1.7249271 -0.87261391 2130.75 474.5
4.1786628 1.7076797 -0.87278169 2722 424
2.6169608 1.7736216 -0.89804614 2117 477
4.2403536 1.7533807 -0.89693671 2452 425
2.5969551 1.8186808 -0.85463679 2032 479
2.601927 1.8387327 -0.86437583 2078 480
4.1821051 1.8248281 -0.86668825 2718.5 428.5
2.6085889 1.8769462 -0.88291979 2023.6667 482
4.2189574 1.8718104 -0.88965142 2610 430
2.6062455 1.9703612 -0.85855329 1978.6667 486
3.8646235 1.9665232 -0.86393666 2260 442
2.6093531 2.025954 -0.88354206 1940.3334 489
2.6100633 2.1361227 -0.85888779 1882 493.5
2.6107225 2.1746156 -0.87485337 1762.5 495.5
2.6191444 2.2206171 -0.89397579 1755.5 497.5
0.62471843 2.2606916 -0.89946926 3359 634.5
0.66938007 2.2596557 -0.89928877 2947.75 630.5
0.90444475 2.2554908 -0.89887285 3430 610
0.64247966 2.3415496 -0.85369664 2511 634
2.6337562 2.3310814 -0.86068815 1746 501
0.684138 2.3874793 -0.87141955 2341.3335 631.33337
0.73125654 2.3949132 -0.87451065 2296.75 627.5
0.76600015 2.3695912 -0.86505783 2059.3335 624
0.82030237 2.3791068 -0.86898136 2245.6667 619.66669
1.9300086 2.3569241 -0.86665088 1432 539
2.6272175 2.3662057 -0.87402982 1837.6667 503
0.67968684 2.4018505 -0.87686861 2356 632
0.82030618 2.4128556 -0.88183534 2324.5 620.5
0.92201608 2.5474391 -0.85007709 2060 615
2.5255263 2.5391126 -0.85592628 2702.5 514.5
2.6709015 2.5206165 -0.85027987 987 507
0.88441008 2.5716209 -0.85829103 2695.5 618.5
2.6830084 2.5774016 -0.87011606 808 509
0.87399524 2.6018546 -0.86876029 2637 620
1.2065687 2.6612606 -0.89125735 2735 597
2.0499179 2.8186321 -0.8577891 1751 549
0.73362392 2.8636832 -0.8648833 3097 635
1.1802571 2.8623891 -0.86688817 2983 603.5
1.2245557 2.8616726 -0.86690146 2981.5 600.5
1.2733827 2.8710561 -0.87012398 2867.5 597.5
1.9387361 2.899858 -0.88280016 3101 558
1.9738379 2.8836231 -0.87787068 3196.5 555.5
2.1168363 2.8884254 -0.88015741 1023 548
2.8272245 2.899055 -0.88734686 2027 515
0.75833356 2.9132791 -0.88065505 3020 634
1.3194071 2.9275985 -0.88820124 2491 596
1.9361324 2.9246633 -0.89060748 3001 559
2.0490327 2.927959 -0.89225656 3006 553
2.8725858 2.9217057 -0.89473397 2021 514
2.9781339 2.9159479 -0.89348871 1830 509.5
2.6781933 -11.982249 -0.83798045 141 10
2.8826079 -11.682755 -0.81736654 282 15
2.9224458 -11.624027 -0.81332308 336 16
2.9620612 -11.566144 -0.80933964 391 17
3.0004952 -11.505237 -0.8051312 396 18
1.7710657 -3.495512 -0.8492564 1635 60.5
0.83470178 -3.3506789 -0.80772847 2400 9
3.3385525 -3.0624816 -0.84366852 1789 143
3.3336053 -3.0179043 -0.83100772 1821 144.5
3.3303845 -2.9755185 -0.81897718 1835 146
3.3324952 -2.9385984 -0.80852437 1821.5 147.5
0.76742482 -2.7749104 -0.83804399 2822 12.5
3.3459473 -2.7614911 -0.8477394 1930 154
0.77851802 -2.737757 -0.8263759 3218 14
3.349638 -2.7403874 -0.84109771 1925 155
3.3516979 -2.7180462 -0.83405656 1912 156
3.3458295 -2.6774197 -0.82120049 1932.5 157.5
3.3410666 -2.6265159 -0.80510628 1915.5 159.5
3.3484046 -2.504086 -0.8469364 1975 164
3.3406172 -2.4758112 -0.83706433 1898 165
3.4324501 -2.4564924 -0.83084905 1361 169
3.7340624 -2.4689519 -0.83682585 2840 178
3.77229 -2.4721162 -0.83813441 2408 179
3.9986949 -2.4822628 -0.84289682 2739 185
4.0027156 -2.4614635 -0.83568794 2690 186
0.69788849 -2.4311872 -0.80713552 3709 13
0.78760946 -2.4102035 -0.80032998 3362 21
3.4799335 -2.4029956 -0.81251001 2982 173
4.0005913 -2.4253502 -0.82312167 2685 187.5
3.4076111 -2.3727648 -0.80160594 2888 172
4.00453 -2.3818488 -0.80802 2721 189.5
0.78701019 -2.2809043 -0.83086658 3322 23.5
0.82786882 -2.2636094 -0.82450867 3370.75 27.5
0.86940408 -2.2666664 -0.82590121 3210 31
1.0279464 -2.2767942 -0.83063036 4145 44
3.8964961 -2.2571819 -0.83897913 2316 191
0.89053369 -2.2432044 -0.81708717 3266 33.5
0.9252677 -2.2263105 -0.81084824 3413.4001 37
0.98051906 -2.232687 -0.81357992 3310.25 41.5
3.9070597 -2.241704 -0.83314586 2358 192
4.075202 -2.2183099 -0.82516813 2581.5 197.5
3.9084907 -2.1565287 -0.80073273 2681 196
4.0357265 -2.1635544 -0.80410844 2645 199
1.4479082 -2.1245244 -0.84730023 2751 82
1.436985 -2.065155 -0.82262892 2255.6667 84
2.0441558 -2.0759022 -0.83047026 2018 124
2.0579119 -2.0630884 -0.82523537 1928.5 125.5
1.453452 -2.0496154 -0.81627899 1860 86
3.7209764 -2.004951 -0.81041104 2042 197
3.923769 -2.0143096 -0.81542164 1030 202
3.7279048 -1.9889423 -0.80381358 2061 198
2.6661043 -1.913411 -0.83271456 1661.5 163.5
2.6640019 -1.8862848 -0.82052636 1865 165
2.450928 -1.797672 -0.84401911 3776 159
2.3980374 -1.7413019 -0.81640553 3239 160
2.4152088 -1.723408 -0.80783439 3170.6667 162
2.3665211 -1.6683837 -0.84328496 3173.5 161.5
2.3857515 -1.6307406 -0.82376254 3156.6667 165
2.4221005 -1.6127514 -0.81459063 3183.6667 168
3.9993143 -1.6041096 -0.81924838 2790 221
2.370666 -1.558547 -0.84422851 3195.5 167.5
2.4430294 -1.5909898 -0.80336165 3167.5 170.5
3.5333192 -1.5760703 -0.80191541 2246 211
3.8919647 -1.5774974 -0.80474383 3024 220
4.0338817 -1.581517 -0.80766511 2827 223
2.3908567 -1.5304012 -0.82862502 3185.5 170.5
2.4218407 -1.5093942 -0.81707323 3214.5 173.5
3.5846913 -1.5072331 -0.82272875 2120 215
3.8399251 -1.5480464 -0.84703368 3190 219
4.0406427 -1.522604 -0.83400601 2789.6667 225
2.361316 -1.4573418 -0.84498143 3130 172.5
2.4369817 -1.4916958 -0.80727607 3196 175.5
4.0349355 -1.4756788 -0.8077594 2823 227.5
2.3801968 -1.442955 -0.83649778 3205 174.5
2.4115827 -1.4165051 -0.82088059 3214.4001 178
4.0383735 -1.4248151 -0.83561051 2793.6667 229
2.3730061 -1.3602154 -0.84285319 3217 178.5
2.4461493 -1.3917379 -0.80628806 3200 181.5
2.4634116 -1.3824527 -0.80084318 3196 183
4.0483842 -1.3503281 -0.8467834 2746 232
4.0522032 -1.3863766 -0.81272411 2771.5 231.5
2.3912466 -1.3459058 -0.83383286 3249.5 180.5
2.4224584 -1.3202384 -0.81764382 3214.4001 184
4.0436373 -1.3233693 -0.82955039 2759 233.5
2.3724275 -1.2720872 -0.84009862 3200 183.5
2.4473722 -1.2970138 -0.80297512 3141 187
4.0431833 -1.2783628 -0.8184976 2767 235.66667
2.3402007 -1.2043347 -0.84686875 3211.5 185.5
2.3810873 -1.2304959 -0.82949656 3219.6667 186.66667
2.4283726 -1.2310804 -0.8125757 3219.5 189.5
4.0484219 -1.2410926 -0.82947314 2719 237
4.0559802 -1.2189949 -0.81450093 2776.5 238.5
2.3871179 -1.1778126 -0.82798892 3235.2 190
2.4206905 -1.1551356 -0.81180489 3256.5 193.5
4.0756245 -1.1910044 -0.84826374 2736 239
4.1064825 -1.1842393 -0.84356809 2336 240
2.3691933 -1.120334 -0.83764982 3239.4001 192
2.423727 -1.1270614 -0.81684256 3250 195
2.4538238 -1.1432271 -0.80340439 3294 196
2.3495874 -1.0631362 -0.84456313 3203 194
2.362504 -1.0535367 -0.83682179 3221 195.5
2.4161215 -1.088629 -0.81359857 3279.3335 197
2.3267004 -1.0053959 -0.84828341 3327 196
2.3847702 -1.0429916 -0.82837182 3298.5 197.5
2.415431 -1.0255916 -0.81438833 3311 200.5
2.3350878 -0.99417734 -0.83863533 3348.5 197.5
2.3823202 -0.9800806 -0.82676172 3306 201
2.4174545 -0.95508909 -0.80538052 3301.3335 205
2.344831 -0.94753969 -0.8489399 3317 200
2.3681872 -0.9236846 -0.82721794 3313.8335 203.5
2.412931 -0.90348887 -0.80900252 3275.5 207.5
3.088177 -0.92883396 -0.83697617 2416 228
2.3258359 -0.88960993 -0.84564477 3353 202.5
2.3690979 -0.86551666 -0.82252789 3334.8 207
2.4189 -0.87433326 -0.80622935 3317.5 209.5
2.4974897 -0.85803455 -0.8161751 3486 213
2.3293719 -0.83779132 -0.84502184 3359.5 205.5
2.4202702 -0.84360337 -0.80158758 3294.5 211.5
2.0499558 -0.65096134 -0.83397579 3780 203
1.8941503 -0.604406 -0.82201439 3441 198
1.912393 -0.60658574 -0.82519007 3553.3335 198.66667
1.8819468 -0.57435489 -0.83316213 3534 198
1.9166409 -0.57346547 -0.81038016 3553 201.8
1.8688364 -0.52142447 -0.8355028 3569.1001 199.7
1.9046022 -0.52686542 -0.81694657 3557.5 203
1.838251 -0.47414201 -0.84357071 3564 199.5
1.8834049 -0.47090495 -0.82948554 3574.1431 203.42857
1.9077084 -0.47726569 -0.80973053 3572.8335 206.16667
1.8462192 -0.44024888 -0.84323454 3603.5 201.5
1.8715169 -0.42185104 -0.82871771 3597 205
1.9124584 -0.4288767 -0.80161637 3583.6667 209.33334
1.8329601 -0.37572557 -0.84201396 3599.75 203.5
1.878396 -0.37812886 -0.81667417 3609.6365 208.27274
1.8384334 -0.3319034 -0.84645563 3621.25 205
1.8683181 -0.32136595 -0.82036477 3614.8574 209.50002
1.9160043 -0.32810223 -0.80235833 3609 213.5
1.8319309 -0.26957288 -0.83757335 3631.375 207.5
1.8666352 -0.27571636 -0.81437016 3621.6667 211.5
1.9046394 -0.29944235 -0.80138147 3646 214
1.8273278 -0.22606608 -0.83443141 3649.5 208.75
1.8702532 -0.2321666 -0.80867368 3655.25 213.5
4.097918 -0.21824999 -0.8493492 2782 269
1.8299805 -0.1806453 -0.82901746 3691.7 210.5
1.8688518 -0.17627139 -0.80765444 3684.2859 214.85715
1.9737109 -0.15031132 -0.84909314 3570 427
3.462693 -0.18499064 -0.81568241 2669 262
1.8318547 -0.1370853 -0.84094119 3550.1667 285
1.8740263 -0.13364403 -0.82622272 3521.2859 277
1.9276603 -0.13989896 -0.83768576 3531.875 376.375
1.965935 -0.11288417 -0.81052279 3350 220.5
2.0296595 -0.11492751 -0.82524431 4061 222
2.0771458 -0.11654527 -0.83680385 3861 223
2.1726031 -0.10503224 -0.82793772 3394 415.5
2.136255 -0.076806501 -0.82613206 2848.7778 332.77777
4.1507959 0.051353067 -0.84903359 2860 271
4.1009827 0.13423499 -0.84768766 2893 270
4.190794 0.13489588 -0.84954143 2700 271
3.9450073 0.19689471 -0.84430486 199 376
3.1113124 0.36175531 -0.81848031 871 392
1.8425967 0.43498328 -0.82653332 2902 440.5
1.8758053 0.43183294 -0.82089603 2798 438
1.9283783 0.43316805 -0.8240242 2979.25 435.5
1.9694369 0.42638966 -0.81155777 2656.3335 432
2.0371897 0.43263903 -0.82422262 2324 430
2.1066167 0.44370863 -0.84609509 2632 429
2.1696184 0.43742472 -0.83481455 2856.6001 425
2.2214546 0.42529339 -0.81226313 2792.75 420.5
2.2732346 0.42293042 -0.80833274 2113 418
2.4575243 0.4010525 -0.82904446 3036 412
1.8350201 0.45814204 -0.80989021 2962.5 440.5
4.1307373 0.83171356 -0.82558292 2763.5 389
4.1219959 0.8759315 -0.81902468 2859.75 390.5
2.9249506 1.0964584 -0.82181615 3063 428
2.9588501 1.0975014 -0.82283646 3146 427
2.9309833 1.1236801 -0.82525861 3210.3335 429.33334
4.1406517 1.1253803 -0.82571495 2851.5 400
4.139401 1.1701224 -0.83234257 2857 402
2.7542019 1.2481109 -0.82510555 3148 442
4.1376457 1.2280459 -0.82009995 2862.3335 404
2.7335529 1.2637026 -0.83556116 3100.3335 444
2.7894845 1.2520276 -0.82798409 3240 441
3.133759 1.2856227 -0.82546598 3043.5 431
4.1349211 1.2733505 -0.82346809 2829.5 406
2.7803617 1.3125101 -0.81328297 2824 444
3.1105752 1.3166665 -0.81794751 3073.6667 433
4.1446915 1.3150645 -0.82324409 2834 407.5
4.1607141 1.3461819 -0.84316194 2686 409
4.137825 1.381451 -0.80954331 2837 410
2.6949813 1.4420637 -0.83707279 1031 455
2.7396121 1.4460517 -0.83972156 979.5 453.5
2.7801974 1.4473292 -0.84072775 1161 452
4.1400909 1.4263836 -0.83638299 2814 412.5
2.6272392 1.467204 -0.83223915 2005.6667 459
2.6771665 1.4527655 -0.84335518 1325.5 456.5
2.816344 1.4528234 -0.84422487 1612 451
2.850903 1.4571671 -0.84702557 1665 450
2.963527 1.4585576 -0.8485316 3116 446
4.1501598 1.4826568 -0.81181717 2823 414
2.6178732 1.5212349 -0.82431215 2275.3335 462
4.1432223 1.5165304 -0.83068657 2807.6667 416
2.6173601 1.5726652 -0.83281898 2230.6667 465
4.1505804 1.5819745 -0.80716324 2807 418
2.6130004 1.6316389 -0.82409209 2203.6667 468
4.1437821 1.6168836 -0.82530105 2769 420
4.1546345 1.6213119 -0.82766998 2743 420
2.6081703 1.6662035 -0.842062 2199.5 470.5
4.1538153 1.6589071 -0.84724116 2752 422
2.6072159 1.7300447 -0.81177151 2165.3335 473
4.160583 1.7263706 -0.81888455 2812 424
2.5979242 1.7789751 -0.83541393 2116 476.5
2.600714 1.7570274 -0.82480121 2121 475
4.1571865 1.7739666 -0.84191459 2803.5 426.5
2.596729 1.8231692 -0.82425618 2064.5 478.5
3.8376441 1.8352748 -0.8048296 1888 436
3.8746316 1.8341895 -0.80455101 2051 435
3.9302337 1.832042 -0.80390042 2611.5 433.5
3.994817 1.8335757 -0.80495411 2881 432
4.1642485 1.8425884 -0.80995941 2776.5 428.5
2.5944118 1.8757043 -0.81596792 2051.6667 481
3.8340364 1.8721317 -0.82136476 2197.6667 438
4.1338644 1.8690094 -0.82165575 2797 430.5
2.6093898 1.9295447 -0.84023678 2010.5 483.5
3.8379173 1.9228966 -0.84418947 2351.5 440.5
2.5966856 2.0240624 -0.81234509 1936 488
2.6033554 2.0295873 -0.8146733 1921 488
2.6039681 2.0753474 -0.83365202 1911.5 490.5
2.6042485 2.1031713 -0.84519142 1887 492
2.6046278 2.1859257 -0.80524206 1811 495
2.608273 2.227962 -0.82127255 1788 497
0.57536215 2.2644274 -0.82395303 3074.5 638.5
0.61390877 2.289403 -0.83367801 2960 635.5
0.87395495 2.2794549 -0.83132285 2893 612.5
0.92252165 2.2833302 -0.83306658 2809 608.5
2.6204672 2.278456 -0.84057146 1756 499
0.83685738 2.3099127 -0.84271872 2891 616.5
0.95440042 2.3220878 -0.84800392 2821 607
2.6240044 2.3017747 -0.84947228 1739 500
2.6272624 2.3921733 -0.80532324 1374 503
0.78245056 2.4409592 -0.81224394 2807.3335 623.66669
2.6504471 2.4355202 -0.82054132 1606 504
0.59987962 2.4991612 -0.83151132 2683 640
0.78094679 2.495338 -0.83116806 2394 625
0.92224318 2.4693825 -0.82290238 1862 613
2.6473391 2.4647429 -0.83069849 1333.5 505.5
0.81942314 2.5223956 -0.84079826 2621.5 622.5
0.89503419 2.5431881 -0.84844995 2934 617
0.91665578 2.5306997 -0.84422004 2162 615
2.6433704 2.5154161 -0.84831911 1965 508
0.6833989 2.6915233 -0.81032747 3437 636
2.7179887 2.6860282 -0.81958628 2488 511
3.0016012 2.9277549 -0.80436552 1827 508
0.88645685 2.9996958 -0.8134445 2983 626
1.4015555 2.9997368 -0.8162148 3068 592
1.4816175 2.9985189 -0.81629819 3253 587
1.5226736 2.9989657 -0.81664467 3247 584.5
1.5763919 2.9904084 -0.8145051 3244 581
1.6268239 2.9909446 -0.81492728 3241.3335 578
1.6789984 2.9935932 -0.81595796 3224.3335 575
1.7213849 2.9766588 -0.81138134 3225 572
1.7779186 2.9848666 -0.81401229 3221.3335 569
1.8249164 2.9747891 -0.81140542 3208.3335 566
1.8660526 2.9691205 -0.81001782 3080.5 563.5
1.9248068 2.9920099 -0.81682527 2945 561
2.9607201 2.9632549 -0.81421655 1636 511
1.3723739 3.0060117 -0.81783855 2784 594
1.4293466 3.0083477 -0.81880623 3256.5 590.5
1.4537687 3.0087991 -0.81906503 3288 589
1.549143 3.0026608 -0.81783468 3257 583
1.9444281 3.0244455 -0.82613111 3000 561
1.9917643 3.041136 -0.831119 2629 559
2.0004318 3.0249486 -0.82657367 1963 558
0.83997673 -3.3030133 -0.79572684 2744 10
0.84931397 -3.2752559 -0.78877121 2891 11
0.8605901 -3.2569447 -0.78420985 2965 12
0.87149394 -3.2376559 -0.77939975 3006 13
3.3379092 -2.9050765 -0.79905236 1820 149
2.2164805 -2.8654256 -0.78180873 352 102.5
3.3371866 -2.8790503 -0.79167193 1855 150
3.3334472 -2.8256855 -0.77652705 1866 152
0.77282923 -2.7946417 -0.75401574 2646 13
3.3422065 -2.7716784 -0.76126695 1925.5 154.5
3.3494494 -2.7413936 -0.75272214 1930 156
3.3531079 -2.5784745 -0.79000652 1981.3334 162
3.975934 -2.575613 -0.79246843 2625 181.5
4.0067444 -2.560113 -0.78774196 2733 183
0.73880756 -2.5243585 -0.75879937 3656 15
3.3499336 -2.519114 -0.7712515 2015.5 164.5
3.6729105 -2.5200672 -0.77329737 2830 175
3.7866879 -2.5300639 -0.77706766 2667 178
3.9978678 -2.5067098 -0.77083665 2701 185
4.0085764 -2.5374038 -0.78058344 2727 184
1.9297328 -2.4863803 -0.75324553 2375 101
2.2446604 -2.4764097 -0.7517997 224 119
3.3295195 -2.4698012 -0.75557494 1933 166
3.4272571 -2.4549887 -0.75142729 1402 170
3.5973558 -2.4891336 -0.76312453 3029 174
3.7341177 -2.470876 -0.75810027 2638 179
3.796766 -2.4905157 -0.76463825 2380 180
3.9988484 -2.4720516 -0.75990152 2711.5 186.5
1.357758 -2.4001791 -0.79995507 1387 66
4.0129056 -2.4458659 -0.75171173 2709 188
0.71830827 -2.3716784 -0.78655881 3385.2 16
0.77144849 -2.3806746 -0.78997624 3337.6667 20.333334
1.1156101 -2.3637304 -0.78596288 3798 49
1.3405268 -2.3934193 -0.79751098 1018 65
1.3542438 -2.3670828 -0.78843004 938 67
3.3688703 -2.3661823 -0.7991063 2766 171
0.78245491 -2.3097961 -0.76539558 3083 23
1.0575098 -2.3143444 -0.76847708 4605 46
1.1238551 -2.3095126 -0.76715922 3150.5 51.5
1.151726 -2.301558 -0.76454586 1587 54
3.2860894 -2.3268793 -0.78499115 2741 170
3.9936252 -2.3298669 -0.78988922 2718 191.5
0.79104775 -2.2805703 -0.7552821 3288.5 24.5
0.81203628 -2.2743831 -0.75324565 3416 26.5
0.87008584 -2.2759728 -0.75411493 3208.5 31.5
1.1139499 -2.2868748 -0.75923514 3086 51.5
3.9812291 -2.2777238 -0.77169418 2718.5 193.5
3.9834988 -2.2348468 -0.75680053 2722.5 195.5
4.0674319 -2.2498546 -0.76247567 2621 197
4.0435362 -2.1354795 -0.79346502 2673 200.5
1.432691 -2.072917 -0.75525808 2115.25 84.5
2.0337455 -2.0804901 -0.76145422 1963.5 124.5
2.055172 -2.0667944 -0.75635922 1685.5 126.5
2.7143617 -1.9663402 -0.78879136 1844 164
3.7351193 -1.9632559 -0.79320598 2134.5 199.5
2.6934538 -1.9331038 -0.77489722 1723 165
2.7135053 -1.9307647 -0.77403945 1558 166
3.8012707 -1.9296161 -0.77963018 1525 203
3.7477143 -1.8821374 -0.75965005 1426 204
2.5797241 -1.8074756 -0.78467482 3790 166
3.4215708 -1.814189 -0.79244268 1673 197
2.5236208 -1.7504156 -0.75874519 3302 167
3.4243212 -1.7887366 -0.78103328 2118 198.5
3.4716482 -1.778317 -0.77662343 1865.5 200.5
3.5107813 -1.7629938 -0.76996624 1427.5 202.5
2.4340234 -1.706748 -0.79987049 3155 164
2.4516394 -1.7043941 -0.79883093 3145 165
2.5210629 -1.7328596 -0.75085032 3184 168
3.5282571 -1.7450899 -0.76202834 785 204
3.5610838 -1.7438588 -0.76166111 644 205
3.623384 -1.738925 -0.75979823 1080.6667 207
2.4685173 -1.6710351 -0.78276551 3142.2 168
2.5055385 -1.651845 -0.77367997 3139 171
2.5255437 -1.6281794 -0.76232886 3151.5 173.5
2.5533714 -1.6096764 -0.75352353 3137 176
3.3227341 -1.6163789 -0.76117557 3150 204
3.4306846 -1.6452434 -0.77577817 3045 205.5
3.4721241 -1.631502 -0.7693578 2848 207.5
3.5230784 -1.613198 -0.76078147 1973 210
3.7675979 -1.6026014 -0.75704741 2415 217
3.8077831 -1.602309 -0.75713581 2906 218
3.9848363 -1.6233399 -0.76833868 2873 221
4.0343361 -1.6160474 -0.76508898 2804 222.5
2.4673123 -1.5642294 -0.78954476 3173.5 173.5
3.4768617 -1.5665811 -0.79663789 2279 210
3.5357983 -1.5603578 -0.79373431 2304 212
3.7015157 -1.5910475 -0.75107127 1299 216
3.7745111 -1.5631454 -0.79657549 3185 218
3.8246059 -1.5793335 -0.77532506 3107 219
3.8594558 -1.588562 -0.75077134 3008 220
2.4986675 -1.5492058 -0.78189075 3150 176
2.5177701 -1.5188904 -0.76618952 3168 179
3.5426354 -1.5466717 -0.78663552 2237 213
3.5681238 -1.5413541 -0.78400993 1830 214
3.6220269 -1.5399585 -0.7835952 1563.5 215.5
3.6850443 -1.541907 -0.78497779 2399 217
4.0440364 -1.5307024 -0.78121966 2819.3335 226
2.4409657 -1.4737271 -0.79726219 3193 177
2.472631 -1.4595804 -0.78954661 3171.75 179.5
2.5559025 -1.4934667 -0.75315028 3153.5 182.5
4.0322499 -1.4898793 -0.75985813 2812 228
2.5120001 -1.4227715 -0.76921713 3189.6001 184
4.0350084 -1.4402388 -0.78796273 2801.5 229.5
4.0591269 -1.4137634 -0.77331573 2756 231.5
2.464922 -1.3638818 -0.78975499 3209 184.5
2.5322404 -1.3944914 -0.75353909 3192 187
2.5559497 -1.3948169 -0.75386083 3203 188
4.0535898 -1.3731879 -0.77748966 2759.5 233
2.4821897 -1.3480439 -0.78039443 3214 186.5
2.5252502 -1.3273219 -0.76827019 3205.6001 190
4.0398636 -1.3220263 -0.77419651 2769.6667 235
2.476243 -1.2757834 -0.78960323 3194 190
4.0437593 -1.2770473 -0.77343023 2780 237
4.0541105 -1.2515086 -0.78375608 2773 238
2.4436607 -1.2095196 -0.79801655 3242 192
2.4750729 -1.2263087 -0.78335291 3250.5 193
2.5329061 -1.2380253 -0.76585406 3233 195.5
2.5597227 -1.2210659 -0.75519514 3238 198
4.0606098 -1.2286799 -0.7692275 2751.5 239.5
2.4815872 -1.1935828 -0.78742087 3224 195
2.5139291 -1.1685168 -0.77058554 3243.75 198.5
4.0472441 -1.1997626 -0.75069201 2771 241
4.0596313 -1.1957264 -0.79870862 2755 240
4.1026177 -1.1924729 -0.79676509 2629 241
2.4706171 -1.1173632 -0.78480911 3257 199
2.5306427 -1.1315839 -0.76180255 3240.3335 201.66667
2.5624933 -1.1389606 -0.75079942 3211 203
2.428926 -1.0675027 -0.79745221 3296.5 199.5
2.4691348 -1.0588586 -0.79107279 3259.3335 202
2.5312378 -1.0835824 -0.76076764 3272.75 204.5
2.4385457 -1.0045447 -0.79738104 3279 203.5
2.4866958 -1.0342541 -0.77228534 3260 205
2.5246742 -1.0128744 -0.75610793 3265.75 208.5
2.4769862 -0.97942138 -0.777152 3262 207.5
2.5182228 -0.9548713 -0.7574088 3282 211.5
2.4477935 -0.93275756 -0.78626788 3285 208.5
2.4646106 -0.92453939 -0.77927274 3284 210
2.5041616 -0.90512121 -0.76274323 3272 213.5
2.4391661 -0.88024187 -0.78785849 3292.6667 211
2.4808211 -0.86723131 -0.77621353 3301 214
2.5214257 -0.88220835 -0.75831455 3282.3335 215.66667
2.568414 -0.85057342 -0.76154351 3634 219
2.4996781 -0.84544283 -0.75635594 3319 217
2.5191696 -0.84284377 -0.75410783 3281 218
1.9692914 -0.61030352 -0.78029817 3494.6667 205
2.0527754 -0.62919372 -0.7557798 3704 210
1.9309613 -0.57239372 -0.78819388 3527 204.40001
1.9737345 -0.57722783 -0.76406121 3544.5715 208.28572
1.9353511 -0.5252502 -0.79108202 3562.5715 206.85715
1.9620361 -0.5250994 -0.76991248 3523 210
1.9359547 -0.478026 -0.78197986 3576.6001 210
1.9664369 -0.47259364 -0.7601943 3528.7778 213.66667
1.933609 -0.42306653 -0.78120488 3577 212.5
1.9668453 -0.42615813 -0.75900787 3541.3335 216
1.919589 -0.37311089 -0.78457725 3596.2 213.60001
1.9640793 -0.37891307 -0.76046228 3572.8 217.8
1.926302 -0.32841164 -0.77291143 3597.5557 216.77779
1.9567692 -0.32293054 -0.75684261 3577.5 220
1.8978783 -0.26962018 -0.79732811 3633 215
1.9209141 -0.27434129 -0.77173269 3626.2144 218.50002
1.9580271 -0.28044945 -0.75231701 3583 222
1.894542 -0.22331755 -0.78581774 3634.0002 217.28572
1.9239118 -0.21939024 -0.76207584 3619.3333 221.22223
1.8872691 -0.17458634 -0.78513235 3655.4287 218.14287
1.9232178 -0.16802149 -0.76614404 3641.75 222
1.8875272 -0.13531557 -0.7890954 3652 218.5
1.9309758 -0.13172403 -0.77153695 3561.3335 222.5
1.9590269 -0.12763344 -0.75095147 3545 226
2.1388969 -0.1013553 -0.78733838 3187.6667 413
2.2109849 -0.1129508 -0.76253521 3473 408
2.1389656 -0.075648129 -0.77131093 2995.25 336.41669
2.1509042 -0.086483166 -0.79402876 3012 413
2.9061863 0.20515895 -0.75979602 1727 389
3.2926242 0.2253654 -0.75120229 631 381
3.0210171 0.26680216 -0.79287505 1840 390
3.2734735 0.25155091 -0.75363237 1022 382
3.3623223 0.2875908 -0.78305477 1043 383
3.288084 0.33418214 -0.75985056 2441 384
3.3160262 0.31937692 -0.75784481 1896.5 383
3.379601 0.31997207 -0.79277337 1323 384
3.2793829 0.38663876 -0.75030816 474 385
3.3218007 0.36159822 -0.75840795 1413 384
3.3794472 0.37512812 -0.78678745 1155 385
1.8400495 0.44013298 -0.77788234 2972.25 436.5
1.8695428 0.43334195 -0.76610285 2712.5 433.5
1.9817892 0.44418082 -0.78657979 2857.8 430
2.0134203 0.42911503 -0.76009148 2824 425.5
2.0771887 0.43112269 -0.76433653 2330 423
2.1256139 0.43686378 -0.77506655 2432 422
2.1796281 0.4436143 -0.78765249 2751 421
2.2240322 0.44254792 -0.78622121 2846 419
2.2620173 0.43426538 -0.77187574 2816 416
1.8372816 0.45564777 -0.7696085 3009 436.66669
1.903725 0.48376688 -0.79957056 3470 437
2.0156484 0.45787993 -0.75749952 2824.5 426.5
4.1327429 0.82093799 -0.77503246 2732 386.66669
4.13099 0.87294722 -0.77590811 2655.3335 388.66669
2.9290342 1.0984399 -0.77289093 3070 426
2.9141307 1.1110599 -0.78190881 3111.5 427.5
2.9836328 1.107357 -0.77967668 3282 425
4.1428413 1.126992 -0.77609509 2784.25 398.5
4.1272764 1.1754836 -0.78435457 2847 401
2.7707367 1.2489882 -0.77276444 3181.5 439.5
3.0749729 1.2456678 -0.77250803 3018 429
4.138145 1.2197089 -0.76246834 2877.3335 402
2.7397575 1.2664446 -0.78369391 3119.3335 442
2.8180835 1.2517842 -0.77483457 1831 438
3.1129348 1.2756441 -0.79183298 2930 430
4.1323237 1.2708666 -0.77756786 2854.6667 404.66669
2.802669 1.3213929 -0.76567513 2919 442
4.1442528 1.3137925 -0.76918781 2839 406
4.1756339 1.3416007 -0.78597838 2617 407
4.1337905 1.386912 -0.75826985 2826 409
4.1528668 1.351512 -0.79175913 2783 408
2.7262697 1.4429073 -0.78122449 905.66669 452
2.9482732 1.4470537 -0.78484923 3115 444
4.1377463 1.4240351 -0.77901769 2809.6667 411
2.620086 1.4591699 -0.78967667 2076.25 457.5
2.6811118 1.4525776 -0.78635657 1174.5 454.5
2.814337 1.4558206 -0.78895313 1515 449.5
2.8632178 1.4605759 -0.79189634 1785 448
2.9124026 1.4575791 -0.79051352 2830.6667 446
3.020303 1.4690988 -0.79758126 3369 443
4.1437974 1.4744036 -0.77889323 2806.5 413
2.6185775 1.5179644 -0.76493359 2286 460
4.1465645 1.5245416 -0.77723432 2811.6667 415
2.6185944 1.5685605 -0.79127938 2251 463.5
4.1382842 1.5584773 -0.79485667 2795 417
4.1538372 1.5888213 -0.75223446 2854 417
2.6110439 1.6251172 -0.76097965 2224.6667 466
4.1451015 1.6043353 -0.7596975 2798 418
4.1550617 1.6369836 -0.77556521 2720 419.5
2.5983434 1.677354 -0.78620386 2173 470
2.6061215 1.6724582 -0.78387755 2193.6667 469.33334
4.1565542 1.6760799 -0.79450703 2798 421.5
2.5974793 1.7396271 -0.75486147 2172.5 472.5
4.1617727 1.7316988 -0.76013553 2701.6667 423
2.5947659 1.7695167 -0.76827204 2118.5 474.5
2.602273 1.7990688 -0.78158879 2098 476
4.1626749 1.781696 -0.78259861 2793.5 425.5
2.5957186 1.8268926 -0.7940498 2077 478
2.6005971 1.8141162 -0.78833842 2076 477
4.1761556 1.8177301 -0.79886073 2797 427
2.5908756 1.8891706 -0.75637698 2065.5 480.5
2.6039183 1.8738129 -0.7500813 2095 479
3.7971473 1.8683648 -0.75447762 2497 437.5
4.1325774 1.8830349 -0.7624318 2701 430
4.1834526 1.8760006 -0.75979859 2332.5 428.5
2.5869536 1.920127 -0.76919186 2062.5 482.5
3.8218827 1.9202269 -0.77612126 2376.5 439.5
2.5952637 1.9524482 -0.78264081 2011 484
2.601675 1.9837602 -0.79566073 2010 485.5
3.8610518 1.9705323 -0.7971999 2227 441
2.5982263 2.0681124 -0.76033521 1915 489
2.6056182 2.0743484 -0.7627511 1930 489
2.5949872 2.1021621 -0.77328593 1893 491
2.6027753 2.1274261 -0.78295118 1839 492
2.6082277 2.1604419 -0.79555589 1860 493.5
0.59970093 2.2741227 -0.75316149 2996 636
0.62069201 2.2696493 -0.75171846 3158.6667 634
0.68308651 2.2760286 -0.75427997 3092 628.5
0.89007235 2.2824516 -0.75764543 2843 610.5
0.91613305 2.2731805 -0.75455976 2886 608
1.8611687 2.2923017 -0.76637268 919 539
2.6137459 2.2673216 -0.76178145 1765 497.5
0.59315372 2.3220592 -0.76981521 2909.5 637.5
0.71614695 2.3393815 -0.77651709 2815 627
0.88123006 2.3084126 -0.76663572 2677 612
1.8679913 2.3335075 -0.78075606 730 540.5
2.6223006 2.3255386 -0.7820968 1853.3334 500
0.98020118 2.3848832 -0.79379946 3346 606
1.8634882 2.3601863 -0.79001999 740 542
2.6114955 2.3564055 -0.79278439 1952 502
0.59234673 2.4015505 -0.79748631 2854 639
0.92390472 2.5388238 -0.7634784 3565 614
1.0320033 2.517065 -0.75720155 3657 605
2.6301475 2.5058165 -0.76228833 2730 507
2.6888146 2.5419166 -0.77398819 2438 506
2.7219787 2.5410681 -0.77389979 2236.5 504.5
0.95563871 2.5973232 -0.78209555 3490 613
2.5855169 2.5717754 -0.78284508 2848 512
2.6578095 2.5557044 -0.7781682 2336 508
2.7854955 2.5690327 -0.78306055 1003 503
0.63123167 2.6222804 -0.7882123 3161.6667 639
0.65843755 2.6331058 -0.79177272 3450 637
2.5931613 2.6025288 -0.79258335 2747 513
0.64916623 2.8043838 -0.75677156 3139 640
1.150041 2.8259852 -0.76558143 2989 604
0.83844608 2.8946843 -0.78339988 3027.5 627.5
1.1903031 2.875433 -0.77982348 2849 602.5
1.2212882 2.8596704 -0.77551812 2952 600
1.2746557 2.8812442 -0.78192353 2910 597
1.9401118 2.8993859 -0.79063362 756 557
2.8992381 2.8738794 -0.788535 1971 510
2.9191296 2.8691339 -0.78729546 1959 509
2.4988344 -10.264664 -0.71277839 340 14
0.84554905 -3.4250503 -0.72156364 818 9
0.84290189 -3.3397841 -0.70264065 423 10
0.83614057 -3.0257134 -0.72572291 3405 14
3.3411977 -2.9189351 -0.71208608 1507 149.5
0.78176057 -2.7221661 -0.73352212 3126 15
3.3475957 -2.7157364 -0.74544036 1927 157
0.79273397 -2.6625509 -0.71668434 3328 17
3.3425765 -2.6758242 -0.7341013 1935.5 158.5
3.3447118 -2.630518 -0.72127169 1967.5 160.5
3.353411 -2.6026776 -0.71342766 1968 162
3.3568294 -2.5708699 -0.70443082 1980.5 163.5
3.7287028 -2.5599864 -0.70333761 1257 176
1.9188874 -2.4714851 -0.74848509 1108.5 101
2.2330825 -2.4410589 -0.74057811 231 120
3.4886959 -2.4334612 -0.74496377 2783 173
4.0166817 -2.4133935 -0.74148178 2726.5 189.5
0.7298243 -2.3721237 -0.71069604 3485.75 17.5
0.78085005 -2.3883204 -0.71608436 3355.75 21.5
1.1453153 -2.3672843 -0.71141326 2504 52
1.1677747 -2.3602931 -0.7093277 479.66669 54
3.3205996 -2.3544607 -0.719118 2660 171
3.3671179 -2.3670986 -0.72335863 2759 172
4.0109043 -2.3638778 -0.7258203 2730.5 191.5
1.1226741 -2.3442514 -0.7040202 3134 51
4.0019903 -2.3131108 -0.70974684 2713 193.5
0.83552903 -2.2582393 -0.74776143 3376.6667 29
0.88176709 -2.2590749 -0.74830413 3244 33
0.89308214 -2.2416737 -0.74231648 3309.5 34.5
0.92257226 -2.2272654 -0.73746824 3401 37.5
0.97369802 -2.2394352 -0.74197793 3367 41.5
1.0089171 -2.2389214 -0.7419914 3510.5 44.5
4.0298138 -2.2063954 -0.74716198 2677 198
4.0348668 -2.1873221 -0.74055886 2674 199
3.1937299 -2.138886 -0.71913195 3919 176
3.9294627 -2.107183 -0.71212381 2783 200
1.4512124 -2.0505235 -0.74683636 2023 87
3.9475131 -2.0853996 -0.70464933 2726.5 201.5
2.7066295 -1.9667217 -0.72185904 1857 165
3.8249831 -1.9860696 -0.73538899 2939 202
3.8864257 -1.9782751 -0.73276085 2661.3335 204
3.9291337 -1.9598181 -0.72597086 3022 206
2.6979492 -1.942624 -0.71263868 1823 166
2.7163453 -1.9215889 -0.70473337 1854.6667 168
2.8402424 -1.924109 -0.7063756 2004 173
2.8835914 -1.9193583 -0.70480627 1932.3334 175
2.6382432 -1.7757748 -0.70937139 2784 172
3.5731335 -1.7639723 -0.70969307 1106.5 205.5
2.537859 -1.7214818 -0.74583799 3143 169.5
2.5618834 -1.7073255 -0.73961926 3145.5 171.5
2.5885019 -1.6793703 -0.72722113 3120.25 174.5
2.6056046 -1.6525552 -0.71528113 3108 177
3.5890572 -1.6683058 -0.72790521 1071 210
3.6102014 -1.6785462 -0.73262125 1110 210
3.9210875 -1.6755607 -0.73303694 1987 218
3.9963794 -1.6707481 -0.7313019 2622.3335 220
2.6309028 -1.6387682 -0.70923537 3130.6667 179
3.6170316 -1.6285065 -0.71019828 1280.6667 213
3.9582934 -1.6168683 -0.70690143 2177 222
2.5474968 -1.59105 -0.74446565 3140 177
2.5764837 -1.5805248 -0.73953223 3158.3335 179
2.6003013 -1.5664215 -0.73283565 3151 181
3.538775 -1.5777929 -0.74371785 1044 212.5
3.5547516 -1.5595787 -0.7349847 617 214
3.6195354 -1.5717653 -0.74125987 699 215
4.0213051 -1.5735438 -0.74442172 2785 224.5
2.5890827 -1.5448022 -0.72229707 3148 182
2.6270485 -1.5248522 -0.71284884 3145.2 185
3.9890811 -1.5148758 -0.71581316 2542 227
4.0062971 -1.5399106 -0.72804087 2639 226
2.576489 -1.4640112 -0.73790616 3154.75 185.5
2.6552496 -1.4986349 -0.70030832 3121 188
4.0262642 -1.4606736 -0.74458992 2762 229.5
2.6207416 -1.427646 -0.71919554 3165.6001 190
3.9966249 -1.4053655 -0.71556944 2432 232
4.0154185 -1.4299158 -0.72848392 2603 231
2.5717025 -1.3704519 -0.74034327 3185 190.5
2.6345961 -1.3943069 -0.70188659 3153 193
2.6525352 -1.3905853 -0.70004976 3167 194
4.0373797 -1.3622664 -0.74442071 2747 234
2.5939856 -1.343089 -0.72518957 3212.5 193.5
2.628201 -1.3219917 -0.71360636 3187.25 196.5
3.9923921 -1.3123096 -0.71624887 2637 236
4.0098634 -1.3354274 -0.72926581 2670 235
2.5397544 -1.2905653 -0.74639273 3192.5 193.5
2.5835738 -1.2756364 -0.73773485 3202.5 196.5
2.6005011 -1.2527176 -0.72414094 3219 199
3.96544 -1.2862189 -0.70151526 2485 237
4.038682 -1.2623178 -0.73850977 2784 238.5
2.5600843 -1.2090344 -0.74751937 3247 199
2.6258404 -1.2275994 -0.70928329 3186.6001 202
3.9777918 -1.2013178 -0.70169288 2487 241
4.0249615 -1.2327523 -0.72076017 2675 240
2.5746837 -1.1919029 -0.73667598 3216.3335 201
2.6116629 -1.1672456 -0.72116673 3224 204.5
4.0610428 -1.1875343 -0.74297285 2738 242
4.1293979 -1.1915499 -0.74595314 2202 243
2.5808468 -1.1182085 -0.73680913 3238.25 205.5
2.6237149 -1.1366916 -0.70174223 3214.5 207.5
2.5417755 -1.0602632 -0.74397248 3229 207
2.5785015 -1.0691321 -0.73448074 3235.6667 208.33334
2.6217077 -1.0782666 -0.70991588 3223.25 210.5
4.0117941 -1.0701234 -0.71304107 2645 247
4.0610037 -1.0837755 -0.72262669 2012 247
2.5855515 -1.0345101 -0.72562885 3238 211
2.6121607 -1.0121038 -0.7095961 3226 214
2.5415993 -0.99312443 -0.74104559 3262 211
2.5735643 -0.97392046 -0.72650045 3239.8 214
2.6246772 -0.96927607 -0.70796794 3254.3335 217
2.5375571 -0.94183958 -0.7469117 3275.5 213.5
2.5692861 -0.91785377 -0.72756547 3256.8 217
2.6314938 -0.94283259 -0.7029947 3245 219
2.5404093 -0.87891865 -0.74032187 3248.5 217.5
2.5706644 -0.85999048 -0.72415292 3255.75 220.5
2.6131787 -0.88195014 -0.71301532 3267 221.33334
2.721071 -0.8766976 -0.7396313 3385 224
2.7274237 -0.84263474 -0.71020627 1989.5 227.5
2.7850027 -0.80759174 -0.72362524 2549.5 230.5
2.7987728 -0.79661977 -0.71365559 2365 232
2.0231199 -0.609285 -0.7311129 3434.5 211.5
2.0933943 -0.62319267 -0.70433992 3275 216
1.9829218 -0.56803036 -0.74824095 3519 210.5
2.0293605 -0.57597858 -0.72037667 3502.0835 214.5
1.9863269 -0.52661341 -0.74704206 3523 213
2.02369 -0.52637225 -0.72803241 3520.3638 216.36365
2.0592687 -0.54848236 -0.70047998 3492 219
1.9935873 -0.46302271 -0.74222255 3497.5 217
2.022784 -0.47454935 -0.72089821 3489.6001 219.60001
2.0557842 -0.48820025 -0.70793974 3462.5 221.5
1.988665 -0.41651529 -0.74197161 3527 219
2.0192108 -0.42486316 -0.72131777 3511.8335 221.83334
1.982736 -0.37113735 -0.73624223 3519.7778 221.22223
2.0311923 -0.37907299 -0.70955849 3504.5 225.5
1.9750488 -0.31919676 -0.73299605 3557.375 223.25
2.0153689 -0.3356882 -0.71456695 3515 226.16667
1.9709227 -0.27513954 -0.73223633 3578.6001 224.7
2.0121439 -0.28053507 -0.71338868 3522.2 228.2
1.945112 -0.21597557 -0.74212432 3622 224.33334
1.9774861 -0.22944909 -0.72312468 3548.1111 227.33333
2.009897 -0.23798862 -0.70811599 3537 230
1.9397084 -0.17533377 -0.74527019 3608.75 224.75
1.976621 -0.17967629 -0.72319913 3548 228.58334
2.0013955 -0.18933621 -0.70786506 3530 231
1.9471453 -0.14983271 -0.74177986 3539 226
1.9800044 -0.13867247 -0.73258829 3516 228.625
2.0177085 -0.12716559 -0.7161051 3369.2859 232.14287
2.0723505 -0.11853173 -0.70654243 3262.5 235.5
2.130795 -0.11990875 -0.70216483 3423.6667 349.16669
2.1683402 -0.11242563 -0.72476929 3498.3335 406
2.8234529 -0.12827015 -0.71757632 2331.5 257
3.1593111 -0.14333878 -0.74134183 2691 262
2.1395721 -0.08197654 -0.73089945 3005.8889 369
2.1680079 -0.070533901 -0.72601473 2852.6667 256.55557
2.2328832 -0.059475228 -0.74473846 4365 405
2.7339771 -0.075909868 -0.70436436 2340 387
2.816515 -0.053718779 -0.73048699 4619 387
2.1432209 -0.023521561 -0.70236278 4473.5 404
2.1683989 -0.02719659 -0.7066015 4208.667 240
2.7548437 -0.026724637 -0.70750672 3376.5 386.5
2.1493068 0.0041594552 -0.70504981 4421 404
2.1572652 0.033176266 -0.70726597 4442 404
2.2108772 0.017267358 -0.72294033 4156 240
2.7497935 0.019772252 -0.70005751 4310 386
2.7603641 0.039525151 -0.70233345 4283 386
2.1614785 0.0631276 -0.70703244 4308 404
2.2015069 0.088659212 -0.71458155 4100 240
2.7651689 0.079513535 -0.70059556 4138 386
2.8206134 0.061922558 -0.71207064 4126 258
2.1803136 0.11850417 -0.71162379 4239.3999 339
2.7743003 0.12039681 -0.71174967 2413.8 361.60001
2.1840844 0.18477486 -0.71704876 4256 406
2.7815623 0.17137647 -0.72258115 1243 388.5
2.1777868 0.230988 -0.71287787 4099.5 407
2.7539825 0.23658818 -0.70327199 2871 389
2.8286486 0.22145225 -0.73124838 2306 389
3.1373181 0.21787703 -0.72533327 808 382
3.2964919 0.24854133 -0.74547416 1059 381
3.3166256 0.22915009 -0.72558689 881.83337 379
2.1794219 0.28051835 -0.71364683 4083 408.5
2.7581213 0.28511468 -0.70132399 2897 390
2.8011405 0.26710713 -0.72179013 2427 390
3.2904816 0.2816695 -0.7432043 1177.3334 381.66669
3.3154655 0.27593872 -0.71800393 1475.3334 379.5
3.3518646 0.28202555 -0.70186752 1507 378
3.4563675 0.28565598 -0.71192223 1453 377
2.185142 0.34800363 -0.717228 3655 411
2.2036641 0.32415003 -0.72418177 4130 410
2.7794528 0.32851002 -0.7115308 2677 391.5
2.8805714 0.30417675 -0.74843603 2131 391
3.3209558 0.33044434 -0.72244108 1486.3334 381
3.4925189 0.34009993 -0.71639401 1875 378
2.1799955 0.38770646 -0.71347094 3490 412.5
2.741549 0.36490077 -0.70290291 1698 393
2.7853439 0.39332679 -0.70450002 3665 393
3.1216846 0.37321457 -0.72296798 465 386
3.3225665 0.37446806 -0.72777504 1096.6667 382.5
1.8405284 0.4387531 -0.723831 2968 431.5
1.8796487 0.43398052 -0.7162599 2710.5 428.5
2.0416532 0.44301462 -0.73295718 2943.5 422.5
2.0763378 0.43250093 -0.71576256 2816 419
2.1341562 0.42402023 -0.70219177 2494 415
2.2511106 0.421152 -0.74841577 2924 414
2.6090529 0.42375624 -0.7065109 2795 399
2.744844 0.43111861 -0.72015607 2646.5 396.5
2.7562742 0.43303397 -0.72346646 2614.5 396.5
1.8345582 0.45335275 -0.72293192 3020.5 432.5
1.8565457 0.4684402 -0.72180903 3084 432
2.0323105 0.45135963 -0.74678731 2919.5 424.5
2.0929744 0.4617711 -0.71364427 2644 419.5
2.1006575 0.45517641 -0.70340884 2786 418
2.7472241 0.45754808 -0.71329814 2718 397
4.2112832 0.53726643 -0.70295805 2371 373
4.2149692 0.57154232 -0.70236737 2358 374
4.1271505 0.79867148 -0.72375172 2769 384
4.1156464 0.82862973 -0.72867471 2876.75 385.5
4.1244588 0.87063032 -0.74321383 2879.5 387.5
2.9891095 1.0228006 -0.71865582 189 418
2.9265192 1.0960417 -0.7229498 2864 424
2.9685278 1.0998939 -0.72582638 1620 423
2.9185245 1.1179385 -0.73776412 3144.3335 426
4.1434293 1.1148468 -0.74329317 2690 397
2.9212813 1.1611905 -0.71776211 2551.5 427.5
4.1329136 1.1763067 -0.7347917 2711 399.5
2.7901487 1.2424904 -0.71849298 3175 436.5
2.840354 1.2329843 -0.71311879 3578.6667 434
4.1410723 1.2268016 -0.71723282 2871.3335 401
2.7415605 1.2715335 -0.73554099 3067.5 440.5
2.7589202 1.2538086 -0.72506285 3109.5 438.5
4.1384544 1.2687551 -0.74226445 2858 403.5
2.7932439 1.3197265 -0.71285248 2082.5 440.5
4.139863 1.3007369 -0.71019739 2843 404
4.1733055 1.3381538 -0.73128319 2692.5 405.5
2.8944721 1.3997136 -0.70496249 2877 441
4.1423683 1.3746527 -0.72510189 2837.25 407.5
2.6369948 1.4441503 -0.72660524 1682 454
2.6533899 1.4396082 -0.72433537 1282 453
2.726141 1.4454297 -0.72778928 800.5 450.5
2.7808218 1.4471339 -0.72899425 1226.5 448.5
2.8193066 1.4465199 -0.72889805 1618 447
2.8966081 1.4440799 -0.72807664 2759 444
2.9388587 1.4440486 -0.72830582 3058 442.5
4.1378126 1.4296836 -0.72779036 2847.6667 410
2.6172056 1.4675622 -0.73868102 2195.25 456.5
2.7051868 1.4549313 -0.73261505 961 452
2.853024 1.4501303 -0.73097396 1541 446
2.9065821 1.463909 -0.73845965 2381 445
4.1437712 1.4796866 -0.72639799 2823.5 412
2.613894 1.531143 -0.71548676 2282.25 459.5
4.1410322 1.5087028 -0.71336186 2817 413
4.152 1.5315406 -0.72448444 2808 414
2.6090875 1.5792313 -0.73874724 2284.3335 463
4.1516509 1.5596111 -0.73807621 2820.5 415.5
2.5950646 1.6299276 -0.70557249 2248 465.5
4.1483479 1.6093627 -0.70510823 2715 417
4.1615376 1.6339426 -0.71622366 2539 418
2.5945148 1.6522907 -0.7156145 2211 467
2.6045527 1.6820574 -0.72904193 2214 468.5
4.1692119 1.6759768 -0.73514813 2600.6667 420
2.5917139 1.712039 -0.74243671 2187 471
2.6023331 1.7037755 -0.73878485 2201 470
2.5892901 1.7808399 -0.71144652 2171.3335 474
2.6056373 1.7603731 -0.70305079 2194 472
2.5944071 1.8252226 -0.72987932 2130 476.5
3.8129764 1.8280113 -0.73783249 2261.6667 435
3.8585696 1.8118018 -0.73136514 1872 433
3.9336474 1.8285856 -0.73874372 2330 432
2.5957186 1.8509578 -0.74055821 2120 478
4.0258374 1.8528173 -0.74930608 2661 431
2.5856452 1.9338206 -0.70911813 2036.3334 482
3.7970741 1.9011158 -0.70334083 2334 438
3.8160048 1.9307325 -0.71472532 1997 439
2.583777 1.9758096 -0.72510016 1973 484.5
3.8469059 1.9669724 -0.72869837 1534 440
2.5947104 2.0111203 -0.73860931 1972 486
2.6047754 2.03725 -0.74861676 1980 487
1.824621 2.124146 -0.70762861 618.33337 533
1.8800806 2.1342027 -0.71143246 1424.3334 530
2.5934691 2.1240854 -0.71180201 1870.6667 491
1.8263512 2.1654723 -0.72202611 648 535
2.6100605 2.1858444 -0.73339438 1851.5 493.5
1.8399794 2.2333751 -0.74574137 1053 537.5
1.8602436 2.2286842 -0.74421871 672 536
2.6081922 2.2229164 -0.74629116 1803 495.5
0.64112812 2.2628837 -0.74947459 3133 632
0.65751386 2.2622869 -0.74935615 3241.5 630.5
2.6140313 2.3314085 -0.70720792 1936 499.5
0.67423499 2.3793926 -0.71185857 3845 631
0.89591533 2.3764167 -0.71211785 3295 612
2.6067975 2.3553927 -0.71473145 1853 501
0.8211394 2.4047091 -0.72063494 2756 619
2.6729484 2.4392381 -0.74152648 1180 502
0.68679547 2.4832087 -0.74466115 3834 632
0.8486411 2.4567111 -0.73718047 2858 618
0.8749572 2.4626074 -0.73918188 3063.3335 616
2.7144024 2.567981 -0.70077401 2647 505
0.64445984 2.6495802 -0.71283478 3031 638
0.67868489 2.6147151 -0.70312828 3229.6667 634.66669
0.72744387 2.6278315 -0.70710993 3389 631
0.64279997 2.704736 -0.7284714 3210 639
0.77681565 2.7274213 -0.73562402 3356 629
2.8331707 2.8782909 -0.70104396 2126 512
2.9167418 2.8770256 -0.70116794 1984 508.5
3.8985353 2.8917851 -0.71012056 1686 475
3.9249403 2.8858626 -0.70876229 1817 474
3.9663754 2.8910451 -0.71029383 1481 473
0.69031775 2.9349179 -0.70398426 2925.5 638.5
0.71025097 2.9316368 -0.70325994 2899 637
1.3091694 2.9145589 -0.70212162 2645 595
2.5269961 2.9172187 -0.70926696 2260 527
2.5677636 2.9138982 -0.70864344 2706 525
2.7313752 2.9208815 -0.71127999 2584 518
3.8683319 2.9075954 -0.71396065 1529 476.5
0.67326593 2.9533372 -0.70855445 2885 640
0.73556137 2.9870033 -0.71740431 2885 636
1.42293 2.9990845 -0.72411442 3245 590
1.4700906 2.9968917 -0.7238102 3270.3335 587
1.5291991 2.9958839 -0.72386932 3253.3335 583.33337
1.5781033 2.9837065 -0.72104788 3257 580
1.6334803 2.9946392 -0.72410864 3218.3335 577
1.6776497 2.9822049 -0.72119707 3239 574
1.7315048 2.9871769 -0.72274131 3215.3335 571
1.7777866 2.9771116 -0.72044039 3247.3335 568
1.8262618 2.9700079 -0.71890044 3196.6667 565
1.8785198 2.9836173 -0.72262198 3050.5 562.5
1.9264024 2.9883599 -0.72407645 2985.3335 560
2.8443356 2.9936626 -0.73029679 1998 516
1.3821186 3.0152049 -0.72797668 2871.6667 593
