# .PCD v0.7 - Point Cloud Data file format
VERSION 0.7
FIELDS x y z intensities index
SIZE 4 4 4 4 4
TYPE F F F F F
COUNT 1 1 1 1 1
WIDTH 1177
HEIGHT 1
VIEWPOINT 0 0 0 1 0 0 0
POINTS 1177
DATA ascii
3.9288507 -3.9434583 1.7903732 2347 128
3.9309373 -3.9112318 1.7758857 2294 129
3.9388175 -3.8851709 1.7641351 2330 130
3.9492137 -3.8618252 1.7535899 2361 131
3.9479613 -3.8270235 1.7379645 2361 132
3.9430516 -3.7889521 1.7208911 2362 133
3.9405825 -3.7536643 1.7050543 2320 134
3.9474523 -3.7277801 1.6933887 2260 135
3.952769 -3.7005873 1.6811441 2276 136
3.9475152 -3.6635265 1.6645267 2325 137
3.9475439 -3.6318338 1.6502907 2344 138
3.9620113 -3.6139483 1.6421751 2364 139
3.9539285 -3.575171 1.6248025 2362 140
3.9469573 -3.5378227 1.6080657 2356 141
3.9503205 -3.5102856 1.5956775 2405 142
3.9492283 -3.4789307 1.5815995 2381 143
3.954335 -3.4534123 1.5701081 2408 144
3.9556859 -3.4247324 1.557218 2406 145
3.9597158 -3.3986449 1.545477 2459 146
3.9483855 -3.3593259 1.5278796 2249 147
3.3776655 -2.8360202 1.2960422 2403 148
3.3466582 -2.784842 1.2732289 1949 149
3.3554883 -2.7682269 1.2657158 1925 150
3.3458452 -2.7360928 1.2513361 1925 151
3.3440745 -2.7108765 1.2400193 1867 152
3.351016 -2.6930959 1.2319934 1896 153
3.3422282 -2.6624753 1.2182887 1904 154
3.3406768 -2.6380584 1.2073298 1967 155
3.335206 -2.6106777 1.1950617 1904 156
3.3393176 -2.5912201 1.1862985 1930 157
3.3546357 -2.5807695 1.1815176 1964 158
3.3502002 -2.5547411 1.1698512 1930 159
3.3501451 -2.532357 1.1597968 1942 160
3.3445895 -2.5058892 1.1479393 1950 161
3.3511107 -2.4889092 1.1402754 1929 162
3.4229386 -2.5215807 1.1545452 1375 163
2.6587574 -1.9243728 0.89060479 2193 164
2.6570268 -1.9061403 0.88242483 2151 165
2.6637261 -1.8942827 0.87706071 2203 166
2.6695802 -1.8818357 0.87143666 2214 167
2.6847625 -1.8762029 0.86882073 2123 168
4.0439243 -2.8377364 1.2930501 1807 169
3.9745779 -2.7630198 1.2598801 2631 170
3.9845181 -2.7454057 1.251912 2591 171
3.9856298 -2.7216461 1.2412332 2585 172
3.9770284 -2.691293 1.2276477 2585 173
3.9865937 -2.6737068 1.2196941 2622 174
3.9872439 -2.6500816 1.2090786 2610 175
3.9837198 -2.6237843 1.197286 2648 176
3.9880884 -2.602968 1.1879109 2655 177
3.9923322 -2.5821664 1.1785433 2652 178
3.994014 -2.5597785 1.1684774 2601 179
4.0012589 -2.5411406 1.1600647 2660 180
3.9985926 -2.5161641 1.1488607 2672 181
3.9908431 -2.488112 1.1363038 2664 182
3.9894779 -2.4643364 1.1256319 2659 183
3.9896085 -2.4416535 1.1154424 2690 184
3.9962137 -2.4231308 1.107085 2684 185
4.0002265 -2.4030685 1.0980507 2743 186
4.0041218 -2.3830197 1.0890231 2693 187
3.9987199 -2.3574367 1.0775621 2708 188
3.9923112 -2.3314402 1.0659211 2705 189
3.999156 -2.313504 1.0578257 2723 190
3.993279 -2.2881403 1.046466 2701 191
3.9939857 -2.2667959 1.0368744 2706 192
4.003871 -2.2508543 1.0296577 2726 193
4.0094347 -2.2324545 1.0213615 2724 194
4.0165987 -2.2150152 1.0134876 2713 195
4.0031929 -2.1860976 1.000574 2728 196
3.9938633 -2.1597004 0.98876935 2705 197
4.0057983 -2.1451883 0.98218334 2500 198
4.0082088 -2.1254804 0.97331727 1837 199
4.0165401 -2.1090417 0.96588624 2697 200
4.0083652 -2.0838265 0.95460612 2726 201
4.0156217 -2.0669436 0.94698167 2761 202
3.9689312 -2.0219162 0.92701966 2783 203
3.9184027 -1.9754984 0.90645492 2254 204
3.9076636 -1.9500701 0.89509362 1899 205
3.9133813 -1.9331864 0.8874774 1914 206
3.9348004 -1.9242101 0.88332433 2061 207
4.0133595 -1.9434572 0.89152616 2484 208
4.0269508 -1.9300896 0.88544488 2689 209
4.0113358 -1.9024847 0.87313336 2765 210
4.0070429 -1.8805749 0.86331612 2818 211
4.0052767 -1.8600018 0.85408497 2806 212
4.0176206 -1.8461775 0.84780556 2806 213
4.0227742 -1.8289684 0.84004641 2810 214
4.0287309 -1.8121648 0.83246481 2809 215
4.0283332 -1.7924914 0.82363009 2748 216
4.0197463 -1.7692151 0.81322324 2786 217
4.0137095 -1.7472435 0.80338806 2795 218
4.010241 -1.7265452 0.79411024 2813 219
4.0192914 -1.7114199 0.78726512 2787 220
4.0183167 -1.6919631 0.7785309 2804 221
4.0253921 -1.6760253 0.77133191 2843 222
4.0305719 -1.6592971 0.76378864 2807 223
4.0247407 -1.6380069 0.75425833 2808 224
4.0306401 -1.6216787 0.7468906 2808 225
4.0254898 -1.6008693 0.73757243 2841 226
4.0211315 -1.5804998 0.72844738 2802 227
4.0331674 -1.5667611 0.72220826 2789 228
4.0304389 -1.5471781 0.71342725 2811 229
4.0386486 -1.531936 0.70653433 2803 230
4.0301805 -1.5102888 0.69685858 2742 231
4.0225043 -1.4890877 0.68737876 2750 232
4.0193305 -1.4697087 0.67869192 2762 233
4.024394 -1.4534675 0.671368 2734 234
4.0405264 -1.441283 0.66580379 2739 235
4.0482392 -1.4259785 0.65888572 2753 236
4.0493541 -1.4083178 0.6509465 2780 237
4.046639 -1.3893632 0.64244771 2748 238
4.0382047 -1.3685107 0.6331287 2743 239
4.0605688 -1.3583294 0.62842911 2569 240
2.6694648 -0.87087882 0.41733104 2311 241
2.6679053 -0.8588174 0.41192204 2764 242
2.678519 -0.85080606 0.4082635 2830 243
2.6806176 -0.83997589 0.40338692 2854 244
2.6694396 -0.82491928 0.39668685 2850 245
2.6600585 -0.81056333 0.39029136 2895 246
2.6657455 -0.80100644 0.38596645 3013 247
2.6770809 -0.79316264 0.38237911 3812 248
2.6674898 -0.77893466 0.37604231 3624 249
2.6673253 -0.7676276 0.37096426 3314 250
2.7090201 -0.76862103 0.37117499 4069 251
4.1417322 -1.1708361 0.5437516 2627 252
4.0459552 -1.126003 0.52415425 2773 253
4.0349669 -1.1057888 0.51513636 2863 254
4.0401444 -1.0901709 0.50809181 2836 255
4.0442882 -1.0742722 0.50092697 2851 256
4.0531564 -1.0596428 0.49430555 2760 257
4.0581126 -1.0439523 0.4872297 2730 258
4.0552921 -1.0262526 0.47929516 2777 259
4.0465946 -1.0071255 0.47075266 2870 260
4.0474396 -0.99049699 0.46327862 2882 261
4.0433698 -0.97269464 0.45530507 2863 262
4.030499 -0.95284265 0.44646057 2864 263
3.9555366 -0.91842234 0.43142289 2772 264
3.9365523 -0.89770472 0.42222407 2713 265
3.9320014 -0.88048226 0.41451374 2700 266
3.93416 -0.86483818 0.40747446 2671 267
3.9459682 -0.85133404 0.40134192 2686 268
3.975244 -0.84153545 0.39677519 2891 269
3.9460225 -0.81914008 0.38688058 2996 270
3.9430017 -0.80245894 0.37940472 2980 271
3.9574718 -0.78939116 0.37345314 2931 272
4.0295582 -0.78770888 0.37229031 2957 273
4.0439768 -0.77421099 0.36614585 2925 274
4.052464 -0.75949156 0.35948616 2990 275
4.0461836 -0.74197388 0.35165298 2968 276
4.0555067 -0.7273857 0.34504753 2954 277
4.0628009 -0.71238667 0.338269 2993 278
4.0690441 -0.69717163 0.33139935 2970 279
4.0752172 -0.68192005 0.32451373 2963 280
4.0616345 -0.66336292 0.31625488 2961 281
4.0479507 -0.64492649 0.30805081 3014 282
4.0459952 -0.62847865 0.30067372 2953 283
4.0587535 -0.61433351 0.2942479 2950 284
4.0665159 -0.59935951 0.28747797 2962 285
4.0672951 -0.58332813 0.28027251 2998 286
4.0600877 -0.5661822 0.27261153 3014 287
4.0557594 -0.54951221 0.26514807 3017 288
4.0582757 -0.53381127 0.25808123 3020 289
4.0587363 -0.51784414 0.25090644 3034 290
4.0620923 -0.5022555 0.24388531 3026 291
4.0663657 -0.48676974 0.2369052 3031 292
4.0735421 -0.47160783 0.23005418 3075 293
4.0866051 -0.45707154 0.22345091 3040 294
4.0737805 -0.43962228 0.21568543 3044 295
4.0638471 -0.42259663 0.20809387 3029 296
4.0607853 -0.40636116 0.20081843 3069 297
4.0656009 -0.39092961 0.19385962 3055 298
4.0703435 -0.37546703 0.18688728 3056 299
4.0760093 -0.36006224 0.17993569 3035 300
4.0796103 -0.34444979 0.17290248 3045 301
4.0721793 -0.32792795 0.16552308 3050 302
4.0676556 -0.31170139 0.15825991 3099 303
4.0690341 -0.29595295 0.15117818 3063 304
4.0723319 -0.2803365 0.14414489 3061 305
4.0775509 -0.26482859 0.1371495 3055 306
4.0866885 -0.24952725 0.13022475 3091 307
4.085773 -0.23358934 0.12307086 3105 308
4.0757947 -0.21718721 0.11575963 3064 309
4.0767212 -0.20140631 0.10866587 3042 310
4.069581 -0.1852624 0.10145459 3053 311
4.0773482 -0.16979282 0.09446203 3027 312
4.0870414 -0.15433842 0.087465405 2894 313
4.0936632 -0.13871065 0.080408253 2953 314
4.0902157 -0.12274256 0.073255099 3139 315
4.0786943 -0.10660385 0.066070914 3170 316
4.0830908 -0.090895563 0.058990166 3208 317
4.0854125 -0.075119711 0.051890783 3222 318
4.0786595 -0.059208807 0.04478199 3137 319
4.08283 -0.043452881 0.037681118 3135 320
4.0899253 -0.027679829 0.030556029 3107 321
4.094945 -0.011848358 0.023416424 3140 322
4.089889 0.003994734 0.016328508 3168 323
4.0827575 0.019784195 0.0092764059 3107 324
4.08355 0.035603724 0.0021660407 3095 325
4.094265 0.051578052 -0.0050699026 3104 326
4.092906 0.067413867 -0.012175431 3108 327
4.1024671 0.083490282 -0.019450709 3104 328
4.0979567 0.099270687 -0.026513547 3085 329
4.0873756 0.11483314 -0.033444196 3033 330
4.0897112 0.13076429 -0.040613417 3085 331
4.0859756 0.14648485 -0.047653757 3058 332
4.064188 0.16141158 -0.054235548 3110 333
3.9294963 0.17090355 -0.057738435 3298 334
3.8507006 0.18215838 -0.06234888 3199 335
3.6860397 0.18809944 -0.06408748 3031 336
3.5443487 0.19407934 -0.06597326 2533 337
3.4964371 0.20480853 -0.07052204 2819 338
3.4843874 0.21755268 -0.076178446 3157 339
3.4832458 0.23097984 -0.082203276 3157 340
3.483037 0.24447687 -0.088264756 3079 341
3.4967079 0.25907397 -0.094898768 2935 342
3.5132902 0.27403197 -0.10171133 2390 343
3.5069015 0.28714281 -0.10756443 1512 344
3.4944835 0.29966694 -0.11311994 1561 345
3.4949379 0.31332278 -0.11925649 1641 346
3.4973137 0.32718462 -0.12549645 1836 347
3.5254509 0.34372684 -0.13308588 2330 348
3.4899454 0.35371107 -0.13737009 2930 349
3.4941068 0.36782056 -0.14373137 3137 350
3.4843118 0.38037473 -0.14931518 3132 351
3.4615743 0.39132532 -0.15410559 3135 352
3.42889 0.40088385 -0.15821452 2970 353
3.2545936 0.39219901 -0.15332897 2840 354
3.02405 0.37473875 -0.14418395 3048 355
2.9460244 0.37603953 -0.14432754 3293 356
2.9431472 0.38718629 -0.14931823 3296 357
2.9658928 0.40199831 -0.15610003 3380 358
3.0063124 0.41961795 -0.1642428 3338 359
2.9904082 0.42905051 -0.16838993 3402 360
2.958704 0.4359113 -0.17129262 4625 361
2.9220669 0.44174188 -0.1737047 5073 362
2.7112896 0.41875967 -0.16219094 2590 363
2.7229638 0.43142125 -0.16794427 3715 364
2.695276 0.4374235 -0.17048399 3354 365
2.6862285 0.44649947 -0.17450967 3307 366
2.70558 0.46064007 -0.18097071 3267 367
2.7346416 0.47675097 -0.18837163 3508 368
2.7714276 0.4945794 -0.19658767 4733 369
4.22118 0.78513473 -0.33528909 2780 370
4.1323109 0.78475422 -0.33461624 2605 371
2.2612498 0.42521876 -0.16255036 2104 372
2.2396371 0.42977369 -0.16447428 2538 373
2.2248414 0.43559355 -0.16700491 2590 374
2.2285206 0.44525519 -0.17136556 2546 375
2.2399242 0.45664936 -0.17654805 2333 376
4.1594291 0.89198774 -0.38293704 2346 377
4.1395278 0.90458912 -0.38848498 2837 378
4.1253977 0.91839015 -0.39460441 2874 379
4.1121802 0.93232358 -0.4007884 2871 380
4.1182423 0.95079237 -0.40911856 2853 381
4.116478 0.96744782 -0.41658995 2839 382
1.874102 0.42931825 -0.1622051 2527 383
1.8440425 0.42929894 -0.16202664 3139 384
1.8380718 0.43521118 -0.16464861 3412 385
1.8282338 0.44008303 -0.16678141 3420 386
1.7953486 0.43878549 -0.16601284 3200 387
1.7366301 0.43026951 -0.16185594 3043 388
1.7249328 0.43412232 -0.16352049 3326 389
1.726614 0.44160891 -0.16689284 3301 390
1.7282541 0.44911736 -0.17027479 3237 391
1.7355733 0.45828682 -0.17443492 3228 392
1.7485476 0.46918535 -0.17940363 2905 393
4.1325412 1.1804833 -0.51237297 2713 394
4.1220341 1.195068 -0.51886481 2881 395
4.1171527 1.2113219 -0.52613831 2859 396
4.1311235 1.2334031 -0.53613567 2854 397
4.1383424 1.2535475 -0.54522508 2867 398
4.1445017 1.2734737 -0.55421036 2861 399
4.1411233 1.2904392 -0.56181192 2898 400
4.1338964 1.3061738 -0.56883883 2833 401
4.1538358 1.3308922 -0.58005458 2744 402
4.1454802 1.3463553 -0.58695316 2778 403
4.1407986 1.3630512 -0.59442627 2846 404
4.1472516 1.3836012 -0.60369343 2847 405
4.1461191 1.4016224 -0.6117819 2836 406
4.1504803 1.4216387 -0.62079751 2822 407
4.1454263 1.4383842 -0.62829083 2845 408
4.1365757 1.4537694 -0.63515162 2815 409
4.129508 1.4697932 -0.64230937 2817 410
4.1436424 1.4937086 -0.6531316 2828 411
4.1502357 1.5149808 -0.66272396 2801 412
4.1493278 1.5335208 -0.67104679 2832 413
4.1566 1.5552812 -0.68086225 2785 414
4.156394 1.574257 -0.68938476 2793 415
4.1551666 1.5928986 -0.69775128 2773 416
4.1483479 1.6093627 -0.70510823 2715 417
4.1615376 1.6339426 -0.71622366 2539 418
4.1691003 1.6564173 -0.72636163 2559 419
4.1692486 1.6759657 -0.7351433 2640 420
4.1692867 1.6955475 -0.74393934 2603 421
4.1664977 1.7140085 -0.75221598 2609 422
4.1645131 1.732868 -0.76067621 2720 423
4.1543055 1.7482195 -0.76751423 2776 424
4.1566324 1.7690573 -0.77688742 2776 425
4.1687179 1.7943347 -0.78830987 2811 426
4.1761556 1.8177301 -0.79886073 2797 427
4.1727138 1.8363475 -0.80720389 2783 428
4.1557832 1.8488294 -0.81271499 2770 429
4.1441541 1.8636905 -0.81932467 2765 430
4.1235747 1.8743283 -0.82398677 2829 431
3.994817 1.8335757 -0.80495411 2881 432
3.9487875 1.8312396 -0.80364478 2804 433
3.91168 1.8328445 -0.80415606 2419 434
3.8746316 1.8341895 -0.80455101 2051 435
3.8376441 1.8352748 -0.8048296 1888 436
3.8331389 1.8522977 -0.81245053 2134 437
3.8320379 1.871085 -0.82088333 2177 438
3.8369319 1.8930124 -0.83076036 2282 439
3.839077 1.9136699 -0.84005153 2345 440
3.8367574 1.9321233 -0.8483274 2358 441
3.8646235 1.9665232 -0.86393666 2260 442
2.8519607 1.4486334 -0.62558889 1671 443
2.8259993 1.4493805 -0.62577784 1798 444
2.7880597 1.4434329 -0.62289196 1573 445
2.7647924 1.4451815 -0.623546 1092 446
2.73558 1.4434669 -0.62261081 1037 447
2.7234766 1.4510604 -0.62595338 1016 448
2.6867075 1.4446936 -0.62288576 1057 449
2.6712372 1.4501224 -0.62523693 1320 450
2.6473129 1.4505979 -0.62531543 1702 451
2.6209049 1.4494433 -0.62464768 1991 452
2.6130478 1.4589419 -0.62886989 2403 453
2.6110141 1.4718767 -0.63466853 2314 454
2.6222754 1.4928106 -0.6441353 2196 455
2.6217175 1.5068271 -0.65042818 2308 456
2.6061172 1.5117631 -0.65255719 2308 457
2.6104007 1.5288231 -0.66024446 2319 458
2.6021783 1.53826 -0.66443694 2286 459
2.6046193 1.5543652 -0.67168492 2336 460
2.6143425 1.5751904 -0.68109423 2310 461
2.6108165 1.5877666 -0.68672335 2299 462
2.6186428 1.6077027 -0.69572252 2285 463
2.6043611 1.6134546 -0.69822556 2254 464
2.5989928 1.6249758 -0.70337033 2259 465
2.5911367 1.6348796 -0.70777464 2237 466
2.5945148 1.6522907 -0.7156145 2211 467
2.6017892 1.6724685 -0.72471917 2216 468
2.6073165 1.6916463 -0.73336476 2212 469
2.6023331 1.7037755 -0.73878485 2201 470
2.5917139 1.712039 -0.74243671 2187 471
2.5992954 1.7330019 -0.75189573 2171 472
2.5956631 1.7462524 -0.75782716 2174 473
2.5935259 1.7606288 -0.76427269 2141 474
2.5960059 1.7784045 -0.77227134 2096 475
2.602273 1.7990688 -0.78158879 2098 476
2.6005971 1.8141162 -0.78833842 2076 477
2.5957186 1.8268926 -0.7940498 2077 478
2.5946338 1.8425461 -0.80107498 2081 479
2.5888209 1.8547502 -0.80652398 2102 480
2.5959971 1.8768443 -0.81648886 2025 481
2.598417 1.8955184 -0.82489073 2028 482
2.6060426 1.9183674 -0.83519715 2013 483
2.6127369 1.9407221 -0.84527642 2008 484
2.612453 1.9578156 -0.85295296 2008 485
2.6045122 1.9689684 -0.85791773 1974 486
2.6017711 1.9842998 -0.86478889 1954 487
2.6041682 2.0038722 -0.87359405 1970 488
2.6101518 2.0265348 -0.88380748 1923 489
2.6137385 2.0474548 -0.89322466 1928 490
2.6349206 2.0831418 -0.90937436 2261 491
2.6256087 2.0938041 -0.91411114 2008 492
2.6103745 2.0994856 -0.91657722 1883 493
2.6163218 2.1231031 -0.92721933 1895 494
2.6133592 2.139318 -0.93448609 1853 495
2.6291299 2.1718543 -0.94919002 1931 496
2.6157708 2.1793587 -0.95248538 1833 497
2.6217904 2.2038848 -0.9635362 1789 498
2.6397872 2.2393079 -0.97954923 1755 499
2.6289916 2.2493744 -0.98401004 1766 500
2.6294992 2.2696602 -0.99312502 1870 501
2.6326861 2.2925701 -1.0034337 1827 502
2.6448436 2.3239598 -1.0176022 1745 503
2.6364441 2.3366463 -1.0232533 1831 504
2.6182127 2.3401732 -1.0247346 2045 505
2.5986085 2.3422897 -1.0255744 2297 506
2.5693619 2.3350806 -1.0221711 2355 507
2.5615478 2.3481712 -1.0280071 2315 508
2.566659 2.3738537 -1.0395721 2157 509
2.6029069 2.430274 -1.0651201 2364 510
2.6034031 2.4522374 -1.0749884 2475 511
2.5855169 2.4561133 -1.0766284 2429 512
2.5703273 2.4625916 -1.0794526 2335 513
2.5397518 2.4534225 -1.0751612 2303 514
2.5159626 2.4508548 -1.0738735 2318 515
2.4948924 2.4508746 -1.0737634 2376 516
2.4791362 2.456254 -1.0760908 2344 517
2.465996 2.4643061 -1.0796335 2344 518
2.449564 2.4688489 -1.0815811 2350 519
2.4253502 2.4649937 -1.0797127 2339 520
2.4044452 2.4644701 -1.0793594 2331 521
2.3803799 2.4603374 -1.0773672 2363 522
2.3570371 2.4567606 -1.0756286 2312 523
2.3280551 2.446717 -1.0709536 2346 524
2.288471 2.4244936 -1.0607475 2288 525
2.210176 2.3580937 -1.0304796 2223 526
2.1181836 2.2747715 -0.99253291 2230 527
2.0655758 2.2349792 -0.97436166 2029 528
2.0418289 2.2277312 -0.97097188 2007 529
2.036634 2.2418811 -0.97729838 1992 530
2.0527389 2.2812517 -0.99507403 2134 531
2.0867405 2.3424835 -1.0227704 2270 532
2.1111248 2.3931482 -1.045666 2366 533
2.1386669 2.4484191 -1.0706484 2417 534
2.1328559 2.4637935 -1.0775216 2479 535
2.1227787 2.4740403 -1.0820673 2513 536
2.1020138 2.4710248 -1.0805955 2474 537
2.0824904 2.4693658 -1.0797402 2416 538
2.1166933 2.5356462 -1.1097054 1539 539
1.8435626 2.2097456 -0.96177322 297 540
1.885942 2.2851164 -0.99586791 286 541
1.898996 2.3235385 -1.0132003 465 542
1.931635 2.3883181 -1.0424826 744 543
1.9761286 2.4699266 -1.0793912 2299 544
1.9653668 2.4788585 -1.0833424 2538 545
1.9517639 2.4839737 -1.0855634 2548 546
1.9370383 2.4875131 -1.08707 2559 547
1.9239674 2.4932625 -1.0895786 2565 548
1.9070446 2.4936199 -1.0896437 2562 549
1.8841722 2.485482 -1.0858591 2544 550
1.8608723 2.4764431 -1.0816673 2544 551
1.847885 2.4818723 -1.0840327 2578 552
1.8428704 2.4988081 -1.0916116 2568 553
1.8266171 2.4995191 -1.0918392 2607 554
1.8109159 2.5009236 -1.0923815 2559 555
1.7957557 2.5030282 -1.0932411 2576 556
1.7749119 2.4964881 -1.0901858 2579 557
1.7546771 2.4906113 -1.0874317 2558 558
1.740145 2.4932382 -1.0885295 2599 559
1.7230864 2.4918702 -1.0878186 2595 560
1.7126095 2.5006504 -1.0917034 2528 561
1.6955914 2.4991326 -1.0909256 2250 562
1.6682175 2.4809079 -1.0825847 1919 563
1.6135248 2.4180841 -1.0540563 1309 564
1.6033574 2.4264519 -1.0577575 1394 565
1.6289464 2.4937832 -1.0881462 2512 566
1.6179136 2.5014248 -1.0915164 2662 567
1.6020747 2.5010154 -1.091243 2593 568
1.5895756 2.5061488 -1.0934783 2627 569
1.5742445 2.5064011 -1.093505 2636 570
1.5594044 2.5073864 -1.0938638 2668 571
1.5413574 2.502641 -1.0916303 2625 572
1.5247548 2.5002313 -1.0904542 2645 573
1.51228 2.5050476 -1.0925471 2660 574
1.501134 2.5122547 -1.0957215 2668 575
1.4877195 2.5153418 -1.0970324 2657 576
1.472537 2.5150995 -1.0968379 2641 577
1.4560711 2.5123265 -1.0954993 2662 578
1.4335892 2.4979751 -1.0889258 2676 579
1.4215803 2.5032408 -1.0912232 2669 580
1.3393201 2.3724072 -1.0319902 2909 581
1.2528578 2.2302256 -0.96763605 3152 582
1.2204126 2.1917198 -0.95015651 2934 583
1.198702 2.1737378 -0.94195676 2602 584
1.1771851 2.1556251 -0.93369925 2662 585
1.1631666 2.1523743 -0.93215984 2639 586
1.1492001 2.1490533 -0.9305892 2461 587
1.1384678 2.1523507 -0.9320097 2429 588
1.1281178 2.1564415 -0.93378872 2450 589
1.1212562 2.1680443 -0.9389618 2411 590
1.1104459 2.171226 -0.94032991 2453 591
1.0958072 2.1659393 -0.93787265 2424 592
1.0793502 2.156359 -0.93347633 2455 593
1.0723449 2.1678228 -0.93858606 2547 594
1.0619222 2.1716506 -0.94024658 2565 595
1.0481917 2.1678019 -0.93844026 2616 596
1.0388539 2.1740828 -0.94120878 2611 597
1.0309036 2.1837354 -0.94549978 2652 598
1.0179324 2.1814299 -0.94439089 2690 599
1.0022074 2.1722307 -0.94016993 2643 600
0.9890039 2.1689358 -0.93861532 2646 601
0.97891861 2.1732886 -0.94051355 2661 602
0.96678692 2.1724536 -0.94007003 2703 603
0.95667684 2.1767206 -0.94192952 2719 604
0.94621384 2.1800878 -0.94338298 2693 605
0.93605953 2.1842759 -0.94520676 2719 606
0.91915202 2.1702926 -0.93883032 2721 607
0.90650636 2.1674578 -0.9374854 2736 608
0.89515209 2.1680274 -0.9376772 2756 609
0.88627189 2.1754858 -0.94097722 2718 610
0.8742969 2.1742308 -0.94034588 2692 611
0.86324799 2.1755309 -0.94086748 2658 612
0.85042828 2.1715598 -0.93901128 2565 613
0.83533019 2.160552 -0.93398148 2573 614
0.82465965 2.1625631 -0.93482453 2518 615
0.81398398 2.1645305 -0.93564796 2480 616
0.805255 2.1725824 -0.93921548 2388 617
0.79646248 2.1806066 -0.94277012 2253 618
0.78814739 2.1903572 -0.94710302 2089 619
0.77682382 2.1904175 -0.94706613 2035 620
0.76184458 2.1781127 -0.94145441 2043 621
0.75060529 2.178062 -0.94136816 2095 622
0.74039352 2.1814911 -0.94285077 2225 623
0.73041058 2.1857631 -0.94471335 2128 624
0.72113448 2.1926491 -0.94775403 2160 625
0.7105999 2.1950788 -0.9487859 2116 626
0.69910723 2.1939235 -0.94820201 2190 627
0.68461579 2.1811912 -0.94240105 2131 628
0.6734522 2.1808126 -0.94216794 2121 629
0.6616317 2.1777215 -0.94071269 1978 630
0.6513893 2.1808038 -0.94203937 1866 631
0.63983566 2.1785042 -0.94094121 2007 632
0.62979263 2.1823928 -0.94263113 2033 633
0.61806762 2.1791067 -0.94108886 1915 634
0.60699201 2.178448 -0.94073033 1895 635
0.59632921 2.1795297 -0.94115603 2200 636
0.58702421 2.1868296 -0.94438243 2272 637
0.57936668 2.2021537 -0.9512226 2428 638
0.5702734 2.2111871 -0.95522887 2402 639
0.56001544 2.2148099 -0.9567982 2486 640
1.309605 -6.5831199 2.7639797 2111 0
1.3442237 -6.5974097 2.7697122 2127 1
1.3746328 -6.588798 2.7659717 2135 2
1.4096366 -6.6037054 2.7719579 2145 3
1.4404063 -6.596653 2.768862 2098 4
1.470946 -6.5885701 2.7653399 2103 5
1.503736 -6.5912499 2.7662683 2060 6
1.5353999 -6.5883536 2.7648907 2136 7
1.5700685 -6.5989084 2.769074 2182 8
1.6017928 -6.5957394 2.7675829 2126 9
1.6343503 -6.596056 2.7675326 2155 10
1.6665121 -6.594429 2.7666786 2127 11
1.6984696 -6.5917668 2.7653964 2114 12
1.7306525 -6.5898724 2.7644312 2126 13
1.7621694 -6.585144 2.7622948 2046 14
1.7957435 -6.5883803 2.7634494 2080 15
1.8303171 -6.5950651 2.7660286 2085 16
1.8645077 -6.5998015 2.767802 2093 17
1.8990179 -6.6052837 2.7698829 2089 18
1.9306467 -6.5998669 2.7674601 2139 19
1.9627604 -6.5961099 2.7657232 2124 20
1.9971734 -6.6002612 2.7672527 2137 21
2.0293214 -6.5962272 2.7654004 2104 22
2.0670116 -6.6107807 2.7712252 2087 23
2.1016562 -6.6144705 2.7725623 2013 24
2.13392 -6.6100035 2.7705297 2039 25
2.1661787 -6.605401 2.7684414 2077 26
2.2001171 -6.6059875 2.7684953 2094 27
2.2355244 -6.6108551 2.7703164 2107 28
2.2710168 -6.6155634 2.7720706 2082 29
2.3051267 -6.6156926 2.771934 2077 30
2.3434434 -6.628027 2.776835 2059 31
2.3770907 -6.6260781 2.7758391 2038 32
2.4064789 -6.6116629 2.7696977 2024 33
2.4432139 -6.618228 2.7722151 2016 34
2.4750278 -6.6105819 2.768867 2060 35
2.5141339 -6.6229601 2.7737818 2067 36
2.5492091 -6.6237726 2.7739232 2045 37
2.5862968 -6.6296711 2.7761621 2040 38
2.6244776 -6.6380138 2.7794087 1993 39
2.6547487 -6.6252685 2.7739546 2036 40
2.694097 -6.6358886 2.7781391 2009 41
2.7246749 -6.6237383 2.7729301 2009 42
2.7614343 -6.6270747 2.7741086 1976 43
2.7972209 -6.6276431 2.7741446 1994 44
2.8376811 -6.6392832 2.7787459 1995 45
2.8739891 -6.6403699 2.7789941 2009 46
2.9030907 -6.624064 2.7720702 2028 47
2.942379 -6.6317253 2.7750278 1966 48
2.9810493 -6.6374788 2.7771978 1992 49
3.0228314 -6.6499009 2.7821159 1892 50
3.0590904 -6.6492825 2.7816572 1951 51
3.1011531 -6.661305 2.7864082 1937 52
3.1360185 -6.6569223 2.7843962 1923 53
3.1665902 -6.6430268 2.7784636 1968 54
3.2010446 -6.6375027 2.7759809 1940 55
3.2403009 -6.6419969 2.7776256 1966 56
3.2808688 -6.648839 2.7802365 1927 57
3.3191135 -6.6504135 2.7806761 1934 58
3.3570211 -6.6509638 2.7806928 1932 59
3.3970723 -6.6555395 2.7823668 1905 60
3.4330313 -6.6515255 2.7805018 1931 61
3.4694381 -6.6481862 2.778914 1874 62
3.5033107 -6.6396637 2.7751908 1861 63
3.5423436 -6.6410046 2.7755294 1883 64
3.5910311 -6.6604705 2.7833295 1874 65
3.6324983 -6.6655478 2.7852039 1786 66
3.6776247 -6.6770496 2.7897215 1799 67
3.7211373 -6.6850052 2.7927778 1837 68
3.7643406 -6.6919112 2.7954006 1822 69
3.7967591 -6.6788321 2.7897964 1667 70
3.8277462 -6.6631527 2.7831216 1571 71
3.8364465 -6.6079993 2.7602026 1586 72
3.836766 -6.5389972 2.7315876 1566 73
3.8369753 -6.4709339 2.7033627 1543 74
3.8294997 -6.3907804 2.670167 1501 75
3.8390272 -6.3408637 2.6494148 1491 76
3.8375523 -6.2731638 2.6213498 1472 77
3.8350239 -6.2047882 2.5930107 1517 78
3.8402431 -6.1502609 2.5703707 1536 79
3.8455119 -6.0966144 2.5480957 1535 80
3.8463681 -6.036622 2.5232139 1555 81
3.8477311 -5.9783392 2.499038 1589 82
3.8410449 -5.9081831 2.4699836 1608 83
3.8408859 -5.8493443 2.4455857 1600 84
3.8520229 -5.8088894 2.4287484 1655 85
3.8571739 -5.7597404 2.408339 1653 86
3.8619318 -5.7106605 2.3879602 1639 87
3.8605409 -5.6529813 2.3640504 1686 88
3.8686917 -5.6103568 2.3463297 1689 89
3.866426 -5.5528789 2.3225079 1697 90
3.8556721 -5.4837999 2.2939229 1592 91
3.8707087 -5.4531136 2.2811141 1681 92
3.8730643 -5.4045286 2.2609544 1701 93
3.8733962 -5.3537025 2.2398765 1739 94
3.8843031 -5.3184371 2.2251921 1776 95
3.8816817 -5.2646856 2.2029176 1747 96
3.878068 -5.2102876 2.1803803 1789 97
3.8784935 -5.1621494 2.1604164 1813 98
3.8819187 -5.1186905 2.1423764 1857 99
3.8878412 -5.0791116 2.125931 1864 100
3.8946035 -5.0411005 2.1101313 1867 101
3.8913138 -4.9902592 2.0890672 1904 102
3.8916624 -4.9448233 2.0702243 1903 103
3.8968883 -4.9062538 2.0542016 1942 104
3.8907046 -4.8534799 2.0323522 1930 105
3.8970456 -4.8173032 2.0173156 1954 106
3.9043009 -4.7826586 2.0029089 2034 107
3.9065361 -4.7421012 1.9860785 2059 108
3.9078612 -4.7008758 1.9689761 2037 109
3.914896 -4.6671133 1.9549366 2080 110
3.9101684 -4.619401 1.935178 1999 111
3.9135969 -4.5820832 1.9196843 2006 112
3.905098 -4.5309367 1.8985227 2068 113
3.9134505 -4.5003443 1.8857905 2107 114
3.9104278 -4.4567018 1.86771 2114 115
3.9176619 -4.4254689 1.8547183 2144 116
3.9259272 -4.3957043 1.8423296 2198 117
3.9163406 -4.3458385 1.8217052 2187 118
3.9145918 -4.3054414 1.8049636 2235 119
3.9163549 -4.2694206 1.790017 2193 120
3.9216926 -4.2377324 1.776847 2239 121
3.9287343 -4.2082071 1.7645645 2258 122
3.931041 -4.1737652 1.7502697 2179 123
3.9259427 -4.1316514 1.7328346 1983 124
3.9270556 -4.0966616 1.7183192 2206 125
3.9298811 -4.0638342 1.7046909 2299 126
3.9225676 -4.0206351 1.6868182 2302 127
3.9348214 -3.9983461 1.6775073 2306 128
3.9329369 -3.9615488 1.662259 2353 129
3.9374776 -3.9317133 1.6498618 2335 130
3.9397898 -3.8998632 1.6366416 2369 131
3.9378159 -3.8639781 1.6217722 2368 132
3.9389741 -3.831578 1.6083304 2360 133
3.9398997 -3.7992418 1.5949163 2404 134
3.9453945 -3.7716854 1.5834588 2391 135
3.9534585 -3.7468395 1.5731109 2276 136
3.9489 -3.7099767 1.5578504 2232 137
3.9461529 -3.6752167 1.5434518 2343 138
3.9501362 -3.6471727 1.5318005 2233 139
3.3799796 -3.0796499 1.2996457 2525 140
3.3436909 -3.0191891 1.2747767 1896 141
3.3359163 -2.9858887 1.2610114 1831 142
3.3456619 -2.9689834 1.2539469 1818 143
3.3388875 -2.9371483 1.2407836 1811 144
3.3462152 -2.91833 1.2329394 1810 145
3.3397453 -2.8873024 1.2201092 1847 146
3.3330441 -2.8563819 1.2073247 1807 147
3.3399091 -2.8376656 1.1995254 1812 148
3.3408253 -2.8138781 1.1896563 1857 149
3.3364546 -2.7857225 1.1780053 1846 150
3.3524601 -2.7752323 1.1735661 1889 151
3.3403847 -2.7409234 1.1594065 1880 152
3.3487933 -2.7241755 1.1524148 1868 153
3.3385091 -2.691941 1.1391054 1886 154
3.3459041 -2.6746204 1.1318818 1889 155
3.3524477 -2.6566787 1.1244055 1895 156
3.3400702 -2.6234894 1.1107119 1860 157
3.345571 -2.6050129 1.1030196 1960 158
3.4063103 -2.6306143 1.113297 1746 159
2.692574 -2.0442839 0.87414384 2790 160
2.6563158 -1.9980215 0.85516244 2449 161
2.661073 -1.9841946 0.84940237 2225 162
2.6795995 -1.9810134 0.84797984 1869 163
2.7352133 -2.0059605 0.8580144 1662 164
2.7903345 -2.0299113 0.86763871 1601 165
2.8309524 -2.0423956 0.87258905 1709 166
2.8522243 -2.0401168 0.87152547 1686 167
2.8688264 -2.03425 0.86900008 1839 168
2.9066455 -2.0437498 0.87272841 2119 169
2.9572241 -2.0620952 0.88005358 2192 170
2.9922011 -2.0687449 0.88261598 2247 171
2.9645696 -2.0306647 0.8669793 1432 172
2.9900081 -2.0303614 0.86671162 1344 173
3.014698 -2.0293343 0.86614799 1347 174
3.0378287 -2.0270398 0.86506754 1316 175
3.0706458 -2.0311999 0.86660963 1372 176
3.0962937 -2.030211 0.86605644 1322 177
3.1211779 -2.0285099 0.8652122 1261 178
3.139605 -2.0223222 0.86254364 1266 179
3.1832862 -2.0326781 0.86659431 1216 180
4.0803161 -2.6001611 1.0969095 1241 181
4.073637 -2.5719571 1.0852515 1301 182
4.0815678 -2.5533481 1.0774904 1300 183
4.061358 -2.5169063 1.0624919 1333 184
4.0375724 -2.4785931 1.0467373 1508 185
4.0624475 -2.4710441 1.0434681 1425 186
3.9450464 -2.375442 1.0044795 1585 187
3.8952475 -2.3227084 0.98289025 1619 188
3.6818399 -2.171495 0.92137682 2307 189
3.6718562 -2.1450071 0.91044873 2283 190
3.6389675 -2.1051257 0.89409453 1603 191
3.776248 -2.165978 0.91856247 2062 192
3.8337698 -2.1788554 0.92358148 2241 193
3.8728116 -2.180522 0.9240548 2308 194
3.8923678 -2.1707151 0.9198792 2308 195
3.8939865 -2.1506388 0.9115451 2355 196
3.9202952 -2.1445119 0.9088577 2358 197
3.9260323 -2.1267745 0.90147054 2473 198
3.9230754 -2.1043 0.89216745 2602 199
3.8941147 -2.0677984 0.87719285 2556 200
3.8951349 -2.0478876 0.8689307 2508 201
3.9047048 -2.032635 0.86255252 2524 202
3.9202838 -2.0205584 0.85745788 2449 203
3.9628165 -2.0225224 0.85803509 2594 204
3.9967096 -2.0196595 0.85665888 2716 205
4.0087695 -2.0053434 0.85065508 2757 206
4.014627 -1.9878519 0.84336919 2831 207
4.0203943 -1.9703511 0.83608001 2785 208
4.0260696 -1.952841 0.82878739 2712 209
4.0210538 -1.9301078 0.81938863 2646 210
4.0185537 -1.9087447 0.81054389 2768 211
4.0168142 -1.8878655 0.80189562 2778 212
4.0105042 -1.8649169 0.79241472 2786 213
4.0174251 -1.8483589 0.78550994 2797 214
4.0215831 -1.8305298 0.77809358 2783 215
4.0292282 -1.8143545 0.77134353 2806 216
4.0215406 -1.7911911 0.76178122 2827 217
4.0173063 -1.7697471 0.75291264 2804 218
4.0183511 -1.7507844 0.74504352 2828 219
4.0247097 -1.7342381 0.73814678 2784 220
4.0246511 -1.7149086 0.73013175 2823 221
4.0308323 -1.6983514 0.72323149 2814 222
4.0305719 -1.6790631 0.71523464 2803 223
4.0311141 -1.6601928 0.70740664 2844 224
4.0260792 -1.6390675 0.69867474 2812 225
4.0209203 -1.6180143 0.68997335 2812 226
4.0193 -1.5985253 0.68190086 2819 227
4.0276623 -1.5831414 0.675475 2784 228
4.0304389 -1.565527 0.66815525 2798 229
4.0294394 -1.5464723 0.66025943 2770 230
4.0292578 -1.5278133 0.6525231 2773 231
4.0262017 -1.5081214 0.64437449 2750 232
4.0332193 -1.4923404 0.63779145 2766 233
4.0318146 -1.4734087 0.62994885 2765 234
4.0646853 -1.4672154 0.62719738 2362 235
2.6911485 -0.94782662 0.41948321 2606 236
2.6862211 -0.93406963 0.41380605 2772 237
2.6784112 -0.91937411 0.40775582 2713 238
2.6639638 -0.90246153 0.40082327 2691 239
2.6643982 -0.89087361 0.39601567 2692 240
2.6685262 -0.88058174 0.39172491 2773 241
2.6791859 -0.87249142 0.38831064 2827 242
4.0757313 -1.3251987 0.56824553 1949 243
4.0498228 -1.2987022 0.55740279 2764 244
4.0435739 -1.2788547 0.54920745 2860 245
4.0381579 -1.2593836 0.54116356 2848 246
4.0402117 -1.2423631 0.53409421 2833 247
4.1256595 -1.2512265 0.53729302 2845 248
2.6389894 -0.77908945 0.34980381 2553 249
2.6787415 -0.77978331 0.34986979 3786 250
2.6747229 -0.76717311 0.34466311 3396 251
2.6706343 -0.75460988 0.33947632 2621 252
4.1023192 -1.1552436 0.49762189 2601 253
4.0521855 -1.123436 0.48471186 2839 254
4.0478077 -1.1048788 0.47704113 2876 255
4.0462065 -1.0871677 0.46970579 2856 256
4.0464339 -1.070009 0.46258932 2867 257
4.0513821 -1.0541466 0.45598406 2763 258
4.0427766 -1.0347406 0.4479849 2717 259
3.9579158 -0.99584532 0.43232954 2724 260
3.9335635 -0.97302157 0.42300102 2562 261
3.934191 -0.95665401 0.41621038 2558 262
3.9318345 -0.93959105 0.40914804 2565 263
3.9458528 -0.9265132 0.40364683 2606 264
4.0092626 -0.92498577 0.40265977 2779 265
4.0484662 -0.91735333 0.39927617 2892 266
4.0458918 -0.89993912 0.39206937 2953 267
4.0383654 -0.88147956 0.38445669 2922 268
4.0200295 -0.86075771 0.37596622 2958 269
3.9694128 -0.83331066 0.36486706 3028 270
3.9430017 -0.81140858 0.35593221 2968 271
3.9467301 -0.79596317 0.34950668 2950 272
3.9787316 -0.78621507 0.34528592 2983 273
4.0410414 -0.78220791 0.34327671 2967 274
4.052464 -0.76788008 0.33727169 2959 275
4.0520644 -0.75125289 0.3303791 2964 276
4.0535445 -0.73500556 0.32363355 2965 277
4.0608373 -0.71982354 0.31729734 2949 278
4.0729747 -0.70546281 0.31127468 2998 279
4.0693164 -0.6883083 0.30418161 2944 280
4.0606503 -0.67036951 0.29679126 2964 281
4.055831 -0.65315878 0.28968138 2944 282
4.0548668 -0.63662899 0.28283229 2967 283
4.052835 -0.61996543 0.27593377 2996 284
4.0605931 -0.60482478 0.2696121 2957 285
4.0623555 -0.58875996 0.26294068 3043 286
4.0709615 -0.57368261 0.25664052 3043 287
4.0696077 -0.5571714 0.24980135 2985 288
4.0642147 -0.54014742 0.2427721 2995 289
4.0636883 -0.52382487 0.23600656 3006 290
4.064074 -0.50764197 0.22929384 2985 291
4.0703316 -0.49219492 0.22285348 3042 292
4.0765185 -0.47670665 0.21639645 3062 293
4.0786638 -0.46072316 0.2097566 3020 294
4.0708013 -0.44363534 0.20271464 3024 295
4.0598722 -0.42630252 0.19558819 3021 296
4.0657558 -0.41079238 0.18912376 3024 297
4.0636115 -0.39446211 0.18236403 3042 298
4.0693483 -0.37890485 0.17588089 3068 299
4.0819821 -0.36393517 0.16960295 3073 300
4.0796103 -0.34758756 0.16283731 3083 301
4.0771604 -0.33126563 0.15608275 3095 302
4.0766253 -0.3151246 0.14939252 3074 303
4.0690341 -0.29847944 0.1425326 3062 304
4.0593672 -0.28176212 0.13565435 3081 305
4.0775509 -0.26696026 0.12941502 3054 306
4.0856905 -0.25140259 0.1229183 3079 307
4.085773 -0.23532479 0.11625085 3090 308
4.0847807 -0.2191973 0.1095688 3063 309
4.0747242 -0.20263776 0.10275813 3083 310
4.0765734 -0.18670689 0.096141748 3099 311
4.0803456 -0.17084713 0.089544132 3028 312
4.0950356 -0.15537004 0.083044305 2912 313
4.097661 -0.13937847 0.076398425 2967 314
4.0902157 -0.12307613 0.069679849 3087 315
4.093689 -0.10711306 0.063041061 3107 316
4.0840902 -0.0908489 0.056350332 3213 317
4.0794134 -0.074749358 0.049700409 3194 318
4.0696607 -0.058623333 0.04306782 3159 319
4.08183 -0.04277635 0.036428664 3168 320
4.0949254 -0.026836993 0.029746039 3143 321
4.0999451 -0.010784427 0.023061512 3141 322
4.0958886 0.0052812761 0.016422162 3128 323
4.0857573 0.021272158 0.009847722 3112 324
4.0855498 0.037292782 0.0032055972 3117 325
4.079268 0.053221863 -0.003364688 3108 326
4.0789099 0.069216318 -0.0099951206 3059 327
4.086473 0.085394748 -0.016746027 3061 328
4.0979567 0.10174471 -0.023589928 3068 329
4.1093607 0.1181893 -0.030472623 3066 330
4.1017008 0.13405821 -0.037010267 3055 331
4.0809808 0.14935727 -0.043238774 3071 332
4.035223 0.16340937 -0.048810545 3162 333
3.9085267 0.1732612 -0.052189134 3300 334
3.9235778 0.1893893 -0.058960941 3012 335
3.6560981 0.18996693 -0.05770855 2914 336
3.5443487 0.19766085 -0.060275689 2472 337
3.4904521 0.20813718 -0.064319305 2981 338
3.4754131 0.22081394 -0.069492102 3143 339
3.4712844 0.23416007 -0.075003318 3143 340
3.4770582 0.24823241 -0.080870911 3079 341
3.4947159 0.26331022 -0.087221727 2795 342
3.5232472 0.27945426 -0.094075322 2037 343
3.5138683 0.29250726 -0.099435702 1564 344
3.5064216 0.30567351 -0.10485382 1516 345
3.4780328 0.31677893 -0.10930058 1598 346
3.5082469 0.33353615 -0.11641782 2024 347
3.5006146 0.34660754 -0.12179558 2740 348
3.481009 0.35833326 -0.12654853 3047 349
3.4901373 0.37314367 -0.13274089 3152 350
3.4972057 0.38780373 -0.13885942 3096 351
3.4962695 0.40157163 -0.14456333 3018 352
3.5339053 0.42015904 -0.15248092 3247 353
3.688261 0.45411053 -0.16742054 3389 354
4.1589918 0.53141242 -0.20210095 2821 355
4.1415405 0.54569495 -0.20792615 2913 356
4.2198863 0.57338166 -0.219844 2725 357
2.997493 0.41270536 -0.14639816 4834 358
2.9747341 0.42124221 -0.14981119 4639 359
4.2121844 0.62318212 -0.24045184 2604 360
4.1559219 0.63131821 -0.24351183 2881 361
4.1843395 0.65272284 -0.25254619 2700 362
2.7250638 0.42733178 -0.15094379 4210 363
2.7023199 0.43435353 -0.15372863 3432 364
2.7041163 0.44548333 -0.15835385 3353 365
2.7127268 0.45786297 -0.16353536 3356 366
2.7202888 0.47014168 -0.16866915 3393 367
2.7473776 0.4861539 -0.17546006 4242 368
3.0464756 0.55441529 -0.20543432 2776 369
4.1468582 0.78177696 -0.30585212 2465 370
2.2906754 0.42829654 -0.14892095 2199 371
2.2651541 0.432307 -0.15044163 2516 372
2.2571888 0.43977207 -0.15349275 2555 373
2.2560129 0.4486292 -0.15715899 2476 374
2.2440903 0.45516738 -0.15980367 2097 375
4.128736 0.88042945 -0.3466593 2627 376
4.1205859 0.89574885 -0.35296634 2832 377
4.1240072 0.91368961 -0.36042494 2891 378
4.1263661 0.93144912 -0.36780244 2858 379
4.1383123 0.95154852 -0.37620372 2879 380
4.1250095 0.96567291 -0.38198647 2836 381
4.1367564 0.98589939 -0.39043933 2431 382
1.8335931 0.42543486 -0.14518486 3134 383
1.8218858 0.42991894 -0.14697897 3439 384
1.8294123 0.43931246 -0.15091616 3436 385
1.8099756 0.44167286 -0.15178655 3212 386
1.7550396 0.43435693 -0.14844641 2971 387
1.7318375 0.43523264 -0.14868015 3202 388
1.7278047 0.44123501 -0.15114665 3254 389
1.7218339 0.44667512 -0.1533692 3229 390
1.7196617 0.45316765 -0.15604934 3207 391
1.7317598 0.46380365 -0.16052726 2919 392
4.1420331 1.1815207 -0.47158718 2705 393
4.1410975 1.1991904 -0.47890905 2891 394
4.1315279 1.2142806 -0.48511314 2882 395
4.1294761 1.2316539 -0.4923059 2899 396
4.12923 1.2496264 -0.4997572 2886 397
4.1421232 1.2718177 -0.50903118 2693 398
4.1992373 1.3084064 -0.52452201 809 399
3.0820026 0.96245748 -0.37483558 370 400
3.0576115 0.967897 -0.37695515 493 401
3.0369837 0.97441852 -0.37954438 497 402
3.0266669 0.984299 -0.38358399 475 403
2.9816701 0.98218077 -0.38245463 498 404
2.9545105 0.98591912 -0.38385332 440 405
2.9376366 0.99308872 -0.38673225 482 406
2.8937323 0.99045938 -0.38539705 535 407
2.8731592 0.99593574 -0.38755319 545 408
2.8284495 0.99239016 -0.38583356 670 409
2.7903144 0.99091905 -0.38501084 702 410
2.7485461 0.98776448 -0.38346976 844 411
2.7299466 0.99310654 -0.3855812 906 412
2.7159567 1.0000994 -0.38840291 1061 413
2.6826289 0.99943852 -0.38794297 1233 414
2.6668072 1.0054389 -0.39034289 1355 415
2.6381454 1.0061872 -0.39049333 1457 416
2.5948882 1.0007863 -0.38801244 1549 417
2.5791249 1.0063001 -0.39021093 1629 418
2.5615346 1.0109491 -0.39204064 1646 419
2.5366721 1.0124187 -0.3925114 1802 420
2.511843 1.0137074 -0.39290726 1872 421
2.4970131 1.0190998 -0.39506063 1980 422
2.4821784 1.0243922 -0.39717248 2092 423
2.4628291 1.027601 -0.39839515 2230 424
2.4560983 1.0362792 -0.4019562 2145 425
2.4547205 1.0473472 -0.4065381 1718 426
2.4658325 1.0641315 -0.41356 1560 427
4.1870251 1.8673714 -0.75624025 2181 428
4.1798806 1.8846297 -0.76335692 2484 429
4.1325774 1.8830349 -0.7624318 2701 430
4.0258374 1.8528173 -0.74930608 2661 431
3.9336474 1.8285856 -0.73874372 2330 432
3.8585696 1.8118018 -0.73136514 1872 433
3.8190236 1.8117592 -0.73112696 2133 434
3.8112442 1.8271407 -0.73746181 2244 435
3.80866 1.8451335 -0.74490851 2408 436
3.7998428 1.860037 -0.75103933 2495 437
3.794452 1.8766927 -0.75791591 2499 438
3.8125167 1.9055036 -0.76996368 2357 439
3.8312488 1.9349502 -0.78227884 2396 440
3.8610518 1.9705323 -0.7971999 2227 441
2.8710427 1.4633375 -0.58135921 2063 442
2.8174288 1.4493798 -0.57527226 1640 443
2.7958612 1.4523326 -0.57637644 1377 444
2.7391047 1.4358107 -0.56920868 1064 445
2.7142522 1.4364305 -0.56932706 916 446
2.6774836 1.4301805 -0.56653029 1023 447
2.6928017 1.4530513 -0.57609963 1128 448
2.6578147 1.4474448 -0.57357961 1539 449
2.6398804 1.4513571 -0.57510191 1813 450
2.6236484 1.4561369 -0.57699341 2229 451
2.5989919 1.4558592 -0.57674074 2424 452
2.6004407 1.4708756 -0.58297569 2182 453
2.6076617 1.4894477 -0.59071726 2277 454
2.6172614 1.5096232 -0.59913695 2341 455
2.6108847 1.5202336 -0.60350126 2302 456
2.6135952 1.5364577 -0.61024398 2310 457
2.612886 1.55067 -0.61613345 2336 458
2.6071341 1.561792 -0.62071335 2310 459
2.6037955 1.5744644 -0.62594962 2354 460
2.6036687 1.5892428 -0.6320771 2322 461
2.605087 1.6051085 -0.63866401 2297 462
2.6080346 1.6220808 -0.6457184 2319 463
2.607615 1.6369654 -0.65188825 2277 464
2.6022367 1.6486446 -0.65670127 2291 465
2.5935619 1.6581433 -0.66059172 2228 466
2.5953205 1.6746939 -0.66746455 2276 467
2.5921504 1.6879988 -0.67296404 2236 468
2.5937059 1.7046217 -0.67986572 2201 469
2.6007369 1.7251751 -0.68842787 2242 470
2.5996675 1.740235 -0.6946668 2230 471
2.6056373 1.7603731 -0.70305079 2194 472
2.5877626 1.7636508 -0.70431024 2197 473
2.5911636 1.7821521 -0.71200109 2154 474
2.588944 1.7967168 -0.71802837 2163 475
2.5936716 1.8164663 -0.72624427 2161 476
2.5951424 1.8339789 -0.73351437 2099 477
2.5957186 1.8509578 -0.74055821 2120 478
2.6039183 1.8738129 -0.7500813 2095 479
2.5903628 1.8803397 -0.75271219 2063 480
2.5913885 1.8980014 -0.76004171 2068 481
2.5846405 1.9097774 -0.76488727 2062 482
2.5892668 1.9304767 -0.77349645 2063 483
2.5952637 1.9524482 -0.78264081 2011 484
2.6010997 1.9745053 -0.79181975 2061 485
2.6022503 1.9930152 -0.79950172 1959 486
2.6025219 2.0109639 -0.80694598 1940 487
2.5966856 2.0240624 -0.81234509 1936 488
2.6041892 2.0482109 -0.82240057 1902 489
2.6011171 2.0638156 -0.82885426 1916 490
2.6068194 2.0868793 -0.83844984 1907 491
2.6042485 2.1031713 -0.84519142 1887 492
2.6118414 2.1282513 -0.85563362 1910 493
2.6082852 2.1439941 -0.86214191 1854 494
2.6060829 2.1610131 -0.86918694 1756 495
2.6153619 2.1882181 -0.88051975 1769 496
2.6179357 2.2097964 -0.88948202 1774 497
2.6203535 2.2314377 -0.89846957 1737 498
2.6226139 2.2531407 -0.90748173 1811 499
2.6197293 2.2703776 -0.91461325 1721 500
2.6224051 2.2928314 -0.92393911 1743 501
2.6270354 2.3173077 -0.93411458 1733 502
2.6230426 2.3340015 -0.94101477 1810 503
2.6224408 2.3539984 -0.94930345 1929 504
2.6175156 2.370069 -0.95594001 1588 505
2.6735492 2.4445581 -0.98714101 882 506
2.7068202 2.4982138 -1.009576 509 507
2.6873755 2.501313 -1.0107527 348 508
2.648788 2.4854836 -1.0039735 482 509
2.6001821 2.4592679 -0.99283147 1599 510
2.5911987 2.4720106 -0.99806547 1799 511
2.6273549 2.530313 -1.0224434 952 512
2.6529319 2.5787079 -1.042654 783 513
2.6700783 2.619128 -1.0595106 1562 514
2.6656077 2.6377039 -1.0671886 1984 515
2.6438026 2.6383233 -1.0673238 2268 516
2.6233585 2.6402056 -1.0679903 2283 517
2.6042552 2.6433666 -1.0691946 2298 518
2.5851707 2.6464241 -1.070356 2309 519
2.5641594 2.6472728 -1.0705907 2283 520
2.5548031 2.660682 -1.0760988 2278 521
2.5376637 2.6655827 -1.0780354 2328 522
2.5071137 2.6554954 -1.0736822 2272 523
2.4906814 2.6608796 -1.0758232 2308 524
2.4609752 2.6511741 -1.0716329 2290 525
2.4490044 2.6613624 -1.0757909 2299 526
2.4344823 2.6686261 -1.078722 2274 527
2.4168277 2.6722124 -1.0801107 2289 528
2.3960927 2.6720831 -1.0799414 2260 529
2.3631067 2.6572921 -1.073624 1654 530
2.2691669 2.5693095 -1.0366162 443 531
2.227778 2.5428605 -1.0254178 846 532
2.0929914 2.4022508 -0.9663592 694 533
2.0106609 2.3232586 -0.93314427 768 534
1.9822922 2.3094683 -0.92726755 1329 535
1.9588428 2.3014293 -0.92380321 1598 536
1.9408196 2.2999444 -0.92308706 1592 537
1.9275416 2.3043325 -0.92483258 817 538
1.8985056 2.2884319 -0.91807705 398 539
1.8974879 2.3084106 -0.92635602 480 540
1.8888235 2.3186259 -0.93054372 460 541
1.8875419 2.3386447 -0.93883777 1262 542
1.8826901 2.3541472 -0.94523913 1499 543
1.8511456 2.3339026 -0.93666828 1072 544
1.8327515 2.3309972 -0.93536091 1065 545
1.822235 2.3387017 -0.93849707 1127 546
1.8144519 2.3502035 -0.94322318 1257 547
1.8032866 2.357069 -0.94600779 1248 548
1.8035846 2.3801005 -0.95555991 1200 549
1.8172908 2.4225333 -0.97323203 1353 550
1.8484504 2.490742 -1.00169 1604 551
1.8602223 2.5319996 -1.0188639 1767 552
1.8838898 2.5913558 -1.0436093 1865 553
1.8594166 2.5804958 -1.0389694 1235 554
1.8303524 2.5624237 -1.0313133 1017 555
1.8348755 2.5945399 -1.0446562 1051 556
1.8494848 2.6425254 -1.0646359 1503 557
1.864187 2.6914697 -1.0850136 2200 558
1.8422219 2.6842551 -1.0818994 2473 559
1.825425 2.6848693 -1.0820603 2477 560
1.8081529 2.6846018 -1.0818532 2491 561
1.7969054 2.6938403 -1.0856214 2506 562
1.7831267 2.6990318 -1.0876973 2509 563
1.7703142 2.705771 -1.0904204 2496 564
1.7540563 2.7068202 -1.0907648 2504 565
1.7286266 2.6924491 -1.0846636 2480 566
1.7139261 2.6957312 -1.0859426 2488 567
1.6973207 2.6957009 -1.0858374 2498 568
1.6812187 2.6964014 -1.0860381 2561 569
1.6679522 2.7019145 -1.0882503 2534 570
1.6560577 2.7098236 -1.0914636 2541 571
1.6381276 2.7070427 -1.0902103 2567 572
1.6225386 2.7082729 -1.0906336 2553 573
1.6015307 2.699558 -1.0869026 2523 574
1.5851259 2.6989701 -1.0865673 2548 575
1.5669744 2.6949964 -1.0848182 2521 576
1.5608052 2.7132847 -1.0923674 2470 577
1.5413684 2.7066805 -1.0895205 2165 578
1.522022 2.6999717 -1.0866307 2063 579
1.5036258 2.6948254 -1.0843941 1918 580
1.4793469 2.6778917 -1.0772367 1801 581
1.3886328 2.5286055 -1.0148261 1919 582
1.2951812 2.370255 -0.9486416 1787 583
1.4771438 2.7673745 -1.1143303 1288 584
1.4537704 2.7518351 -1.1077561 1043 585
1.2881444 2.4401047 -0.97756696 868 586
1.2299579 2.3468175 -0.93855894 1732 587
1.1917704 2.2937503 -0.91634047 2849 588
1.1852149 2.3074374 -0.92197967 2469 589
1.1804997 2.3253653 -0.92938751 1737 590
1.170235 2.3313785 -0.93182373 1639 591
1.1629879 2.3441777 -0.93709081 1663 592
1.1677256 2.3843095 -0.95375866 2276 593
1.1485651 2.3705902 -0.94796276 2961 594
1.14249 2.3867781 -0.95464152 2901 595
1.1457853 2.4252987 -0.97063333 2616 596
1.1378925 2.4380746 -0.97588712 2766 597
1.1273971 2.4447992 -0.97861707 2845 598
1.1140312 2.4445779 -0.97845072 2912 599
1.1017348 2.4468906 -0.97934109 2863 600
1.0870202 2.4430869 -0.97768176 2825 601
1.0771348 2.4513586 -0.98105669 2825 602
1.0631472 2.4491687 -0.98007059 2826 603
1.052527 2.4556174 -0.98268545 2812 604
1.0392345 2.4550529 -0.98237723 2754 605
0.99448228 2.3697398 -0.94675076 1852 606
0.95920712 2.3077214 -0.92083681 1969 607
0.93086177 2.2629771 -0.90212458 3084 608
0.92012507 2.2662816 -0.90343487 3357 609
0.90444475 2.2554908 -0.89887285 3430 610
0.89587098 2.2648444 -0.9027037 3442 611
0.88512611 2.2680078 -0.90395546 3366 612
0.8758443 2.2755368 -0.90702581 3215 613
0.86592335 2.2812684 -0.90934724 3069 614
0.85366553 2.2798893 -0.90870702 3091 615
0.83690739 2.2642889 -0.90214443 3112 616
0.82421458 2.2610085 -0.90071332 3110 617
0.81431305 2.2665455 -0.90295422 3113 618
0.80410254 2.2711575 -0.90480971 3079 619
0.7938621 2.2757304 -0.90664887 3152 620
0.78332978 2.2793732 -0.90810061 3157 621
0.76916701 2.2704866 -0.90433663 3154 622
0.75738358 2.269567 -0.90388954 3157 623
0.74487352 2.2659132 -0.90230471 3166 624
0.7329008 2.2639923 -0.90144134 3144 625
0.72264493 2.2682908 -0.90316659 3169 626
0.71236032 2.2725494 -0.90487516 3129 627
0.70065284 2.2713811 -0.90432537 3086 628
0.68645823 2.2602737 -0.89964032 3016 629
0.67417145 2.2562938 -0.89792144 2936 630
0.66413015 2.2612655 -0.89992702 2840 631
0.65276045 2.2607896 -0.89966631 2999 632
0.64140582 2.2602654 -0.89938557 3404 633
0.63254935 2.2705326 -0.90359372 4790 634
0.61995912 2.264497 -0.90102071 3834 635
0.60803109 2.2611182 -0.899553 3314 636
0.59730929 2.2631209 -0.90032369 3403 637
0.58657819 2.2650807 -0.90107656 3317 638
0.57509613 2.2633679 -0.90030217 3286 639
0.56690109 2.277951 -0.90630364 3367 640
1.3944722 -7.1302738 2.749691 1988 0
1.4290739 -7.1324029 2.7503111 1946 1
1.461798 -7.1242595 2.7470293 1915 2
1.4982288 -7.1353006 2.7510335 1948 3
1.5338717 -7.1415839 2.7532303 1937 4
1.5675356 -7.1376119 2.7515318 1930 5
1.6023402 -7.1390061 2.7518709 1978 6
1.6358119 -7.1338348 2.7497168 1977 7
1.6696641 -7.1303577 2.7482059 1915 8
1.7047403 -7.1322317 2.7487261 1932 9
1.7396539 -7.1330404 2.7488418 1933 10
1.7771634 -7.1446605 2.7530608 1905 11
1.8130718 -7.1488109 2.7544434 1955 12
1.8477199 -7.1473331 2.7536895 1918 13
1.8799001 -7.1356907 2.7490778 1908 14
1.9138459 -7.1312003 2.7471805 1926 15
1.9491898 -7.1320224 2.7472987 1941 16
1.986962 -7.1417713 2.7508035 1944 17
2.022187 -7.1413703 2.7504566 1927 18
2.0586793 -7.1453481 2.7517705 1951 19
2.0977583 -7.1582131 2.7564549 1893 20
2.1329041 -7.1564322 2.7555828 1918 21
2.1670313 -7.1508899 2.7532837 1885 22
