# .PCD v0.7 - Point Cloud Data file format
VERSION 0.7
FIELDS x y z intensities index
SIZE 4 4 4 4 4
TYPE F F F F F
COUNT 1 1 1 1 1
WIDTH 1128
HEIGHT 1
VIEWPOINT 0 0 0 1 0 0 0
POINTS 1128
DATA ascii
2.3486774 4.1444564 2.8239672 2863 585
2.3816447 4.13307 2.8160713 2865 583.5
2.4261789 4.1188726 2.8062057 2882.5 581.5
2.3208566 4.1655159 2.8383641 2867 586.5
1.8763916 4.3902311 2.8121679 2866.5 606.5
1.9086328 4.3764887 2.803257 2861 605
1.7709416 4.4427581 2.8461192 2892 611.5
1.8265079 4.4234667 2.8335474 2869 609
1.2864655 4.6917691 2.8163729 2832 633
1.3212864 4.6821957 2.8104835 2842.5 631.5
1.1862134 4.7404027 2.8458316 2820 637.5
1.2339356 4.7314391 2.8402271 2842.5 635.5
1.2643667 4.7028084 2.8230557 2856 634
1.2936614 -5.8575411 2.8807671 1937 3
1.3168855 -5.8281403 2.8663433 1908 4
1.5131468 -5.4763064 2.8950663 2119 13
1.5287414 -5.4277072 2.8695662 2158 14
1.714231 -5.077652 2.8771114 2259 23.5
1.8798922 -4.7722406 2.8892312 2362.5 32.5
1.9010046 -4.722311 2.8591764 2375 34
2.0410719 -4.4670916 2.8855467 2457 42
0.99488187 -4.4325662 2.869854 1004 0
1.0189649 -4.4351521 2.8713613 1409 1
2.0540502 -4.4370832 2.8662655 2387 43
2.1691501 -4.212492 2.8972569 2476 50
2.1880145 -4.1726809 2.8700013 2471 51.5
2.3117898 -3.9610264 2.8967643 2535 59
2.3331594 -3.9309568 2.8748212 2524 60.5
2.4468133 -3.7192094 2.8888471 2541 68
2.4586096 -3.6977074 2.8721988 2533 69
2.5424178 -3.5121374 2.8954875 2595 75
1.3395802 -3.4881628 2.8838737 2259 23
1.365675 -3.4730031 2.8712926 2244.5 24.5
1.4062413 -3.4972036 2.8908296 2353 26
2.565444 -3.4728227 2.8631568 2597.6667 77
2.5615897 -3.3168385 2.8979564 2195 79
2.6555657 -3.3078241 2.8894932 2597 83
2.6656113 -3.2718225 2.8581853 2612 84.5
2.7485564 -3.1201217 2.8884094 2613 90
2.7578194 -3.1010826 2.870826 2610 91
1.584671 -3.0906284 2.8694205 2130 39.5
1.6225808 -3.0842977 2.8633299 1393.5 41.5
1.7239984 -3.080235 2.8588817 2585.5 46.5
1.8059692 -3.0958014 2.8726308 2354 50
2.7658303 -3.0807979 2.8521054 2621 92
1.671756 -2.9192233 2.8719537 2292 46
1.7247505 -2.9231577 2.8754108 2476 48.5
1.8097864 -2.909786 2.8617537 2692 53
1.8994 -2.9198794 2.8709555 2270 57
2.8453238 -2.9447703 2.8884296 2640 97
2.8519118 -2.9243662 2.8684766 2604 98
1.7480264 -2.7582517 2.8742671 2558 52
1.7913592 -2.7630885 2.8789468 2270 54
1.8097529 -2.7599487 2.8755641 2570 55
2.0003314 -2.7661119 2.8805242 2502 64
2.9378581 -2.7723727 2.8800495 2629.6667 104
1.7628781 -2.7494698 2.865077 2412 53
1.8990954 -2.7395544 2.8538156 2766 60
1.8285984 -2.6123528 2.8840871 2601 58
1.8735998 -2.6043253 2.8749437 2390.5 60.5
3.0121338 -2.6132331 2.8760042 2651 110
1.8363106 -2.5937939 2.8636851 2488 59
1.9771833 -2.5921295 2.8607838 2746 66
3.0228066 -2.5993569 2.8607125 2604 111
1.9084319 -2.4713788 2.8915591 2703 64
1.9552555 -2.4530852 2.8699234 2004 67
2.1769161 -2.4711726 2.8891983 2449 77
3.0897865 -2.4729581 2.8840613 2715.5 115.5
3.1030262 -2.4510965 2.8585436 2680 117
1.9189914 -2.4449229 2.8607216 2464 65.5
1.9657 -2.4402716 2.8549454 2657 68
2.0505271 -2.4445632 2.8592644 2657 72
1.9820431 -2.3158154 2.8724537 2634 70.5
2.0280137 -2.3105028 2.8655257 2324 73
2.1218853 -2.3010831 2.8531418 2764 78
2.2578828 -2.3354425 2.8944011 2442 83
3.1767621 -2.3224065 2.8708084 2694 122
3.2447944 -2.2108755 2.8980789 2588 126
2.0634682 -2.1773345 2.8642025 2426.3335 77
2.1150327 -2.1784167 2.8651814 2395.5 79.5
2.1776395 -2.1687496 2.8519967 2775 83
2.2971852 -2.1837766 2.8706512 2372 88
3.2488685 -2.1755817 2.8518481 2612 128
3.2505593 -2.1957366 2.8782148 2560 127
2.1247287 -2.0641913 2.8830974 2603.5 81.5
2.1782706 -2.0566244 2.8720999 1621 84.5
2.2904739 -2.0547638 2.8685212 2077 90
2.3238091 -2.0661066 2.8840044 2614 91
2.3552005 -2.0753419 2.8965733 2837 92
3.3166571 -2.0656421 2.8745947 2687.6667 132
2.1382751 -2.0471816 2.859318 2432 83
2.2422297 -2.0486755 2.8604786 1208 88
2.2594573 -2.0452843 2.8556094 1547 89
3.3766761 -1.9508406 2.8864136 2645 136
3.3847063 -1.9388413 2.8685756 2667 137
3.4353671 -1.8288902 2.8802516 2665.5 140.5
3.4562488 -1.8167262 2.8608603 2646 142
1.5402793 -1.7150444 2.8995256 3102 55
3.4960194 -1.7175372 2.8839865 2690 144.5
3.5010388 -1.6980618 2.8511336 2690 146
1.1422205 -1.6014423 2.8981678 3217 32
1.1576527 -1.6011612 2.8974977 3209 33
1.4995486 -1.6045127 2.8999064 3163 54
1.6354064 -1.6043819 2.8982282 3147 62
2.2763364 -1.6091406 2.8999977 2973 96
3.5579252 -1.6080687 2.884459 2665 148.5
3.5641251 -1.5903412 2.8524504 2628 150
2.0633762 -1.5001985 2.8978434 3029 87
3.6126981 -1.5036767 2.887198 2703 152
1.3223968 -1.4961432 2.898314 3221 44.5
1.7691065 -1.4994557 2.8997064 3107 71
3.6162632 -1.4923331 2.8652434 2639 153
2.6794002 -1.4001691 2.8985579 2922 118
3.6610312 -1.4033929 2.8935931 2661 155
0.96791935 -1.3888906 2.8954554 3259 22.5
1.172835 -1.3921089 2.899709 3192 36
2.2892921 -1.3972337 2.8970928 3047 100
2.689384 -1.3933303 2.8842266 2909 119
2.7190216 -1.3969337 2.8913631 2838 120
3.6673701 -1.3878763 2.8612704 2643.5 156.5
3.7126896 -1.304655 2.8991034 2695 158
0.77625132 -1.2865275 2.8955922 3293 10
0.97850865 -1.2881902 2.8967633 3245 24
1.0679784 -1.2898287 2.8993082 3282 30
1.1728764 -1.289897 2.8981338 3248.6667 37
1.2724266 -1.290255 2.8976767 3267.5 43.5
1.3887843 -1.2895341 2.8945856 3209 51
1.5914342 -1.290019 2.8931088 3112.5 63.5
1.7396106 -1.293847 2.8998244 3036 72
1.7560102 -1.2931799 2.8981194 3073 73
1.86254 -1.2941747 2.8990035 3110 79
1.9697311 -1.2934104 2.8959312 3068 85
2.0093312 -1.2952921 2.8996532 3057 87
2.5497253 -1.2839476 2.8673501 2853 115
2.5790768 -1.2766452 2.8505888 2469 117
2.8740492 -1.2975302 2.8937292 2974 128
3.7303953 -1.2941868 2.8753843 2666 159.5
2.8890817 -1.2002885 2.8954897 2624 130
3.768008 -1.2032552 2.8907962 2689.5 161.5
0.71902019 -1.1884449 2.8960857 3286 6.5
0.86792523 -1.1908191 2.8998435 3282 17
1.1146621 -1.1914732 2.8980911 3253 34
1.2201126 -1.192359 2.8988168 3266.6667 41
1.4300888 -1.193712 2.8992624 3056.5 54.5
1.8034418 -1.1945001 2.8961208 3083 77
2.5836205 -1.1866732 2.8665099 2665 118
2.6304567 -1.1828527 2.8565822 2651 120.5
2.6583011 -1.180339 2.85009 2397 122
2.8422885 -1.1904932 2.872297 2445 129
3.7784488 -1.1911469 2.8612013 2694 163
1.9620419 -1.1000465 2.8976119 3102 87
2.2185163 -1.1020198 2.8990979 3047 100.5
2.6399374 -1.1001426 2.8879745 2729 121
3.0045586 -1.1049153 2.8953001 2934 136
3.3583233 -1.1085932 2.8998835 2829 149
3.6258197 -1.1100792 2.8999176 2711 158
3.8257964 -1.1038768 2.8805654 2684 165
0.72550505 -1.0922182 2.8949122 3316 7.5
0.82231534 -1.0920911 2.8931627 3338 14.5
0.9200213 -1.0945352 2.8982131 3319.6667 21.333334
0.95839018 -1.0951966 2.8994062 3279 24
1.0289131 -1.0938237 2.8947392 3297 29
1.1324114 -1.0956398 2.8980412 3271 36
1.2373306 -1.0965517 2.8989263 3301 43
1.2593489 -1.0960102 2.8971701 3275.5 44.5
1.3425099 -1.0955385 2.894707 3210 50
1.9062872 -1.0988156 2.8951638 3160 84
2.6357758 -1.0889193 2.8582973 2643 122
2.6839893 -1.0904523 2.861656 2264 124
2.7023101 -1.0887043 2.8567572 2387 125
2.9169128 -1.0996422 2.8826072 2427 133
3.8319757 -1.0961757 2.8600698 2674 166
0.79544449 -1.0003681 2.8991566 3319 13
0.83713186 -1.0007354 2.8995633 3352 16
0.94900161 -1.0009009 2.8982737 3300 24
1.0203432 -1.0013928 2.8985734 3308.3335 29
1.0915655 -1.0008335 2.8958225 3294 34
1.1217617 -1.0020039 2.8987427 3299 36
1.1951414 -1.0021591 2.8980327 3305 41
1.2244904 -1.0019252 2.8968892 3294 43
1.3304914 -1.0026888 2.8974292 3285 50
1.3775302 -1.0036395 2.8994448 3184 53
1.8879834 -1.0054836 2.896723 2984 84
1.9067321 -1.0061172 2.8982663 3081 85
1.9980021 -1.0070949 2.8996603 3130 90
2.285208 -1.0087208 2.8998368 3095 105
2.3030448 -1.0078149 2.8969247 3048 106
2.5734518 -1.0081555 2.8936355 3047 119
2.6904917 -1.0107913 2.8994365 2911 124
2.9514976 -1.0033314 2.8736491 2434 136
3.0237112 -1.0111146 2.8951032 2736 138
3.2934391 -1.0136943 2.8983252 2796 148
3.4362209 -1.0145117 2.8984396 2809 153
3.8765743 -1.0084479 2.873868 2669.3335 168
0.63134617 -0.99930131 2.8986554 3359 1
0.72574651 -0.9984827 2.8947854 3345.6667 8
0.8144514 -0.99802685 2.8920584 3316 14.5
0.92601812 -0.99862242 2.8920226 3293 22.5
1.1184064 -0.9987576 2.8893712 3312 36
2.6846645 -0.9999401 2.8680246 2672 125
0.6789819 -0.90676177 2.8930702 3339.6667 5
0.74081212 -0.90858221 2.8978291 3364.5 9.5
0.76126206 -0.90874761 2.898005 3346 11
0.86294621 -0.90777338 2.8931298 3330 18.5
0.93217599 -0.90789866 2.8923349 3354 23.5
0.95177186 -0.90651798 2.8875775 3312 25
1.0325269 -0.91004324 2.8974652 3343 30.5
1.0606291 -0.90973747 2.8960011 3291 32.5
1.1396524 -0.90984249 2.8949721 3316 38
1.1552787 -0.91082388 2.8978431 3316 39
1.2418177 -0.90976179 2.8929486 3294 45
1.2732034 -0.9110955 2.8966751 3272 47
1.3706492 -0.91087347 2.8942809 3251.5 53.5
1.9428526 -0.91528767 2.8985236 2984 88
1.956902 -0.91347152 2.8924677 3045 89
2.1809075 -0.91490799 2.8931954 3099 101
2.2047918 -0.91696161 2.8993556 3093 102
2.3037245 -0.91755301 2.8995392 2985 107
2.4685171 -0.91840005 2.8994033 3007 115
2.6879323 -0.91956496 2.8993411 2996 125
2.7426965 -0.9150542 2.8839574 2701 128
2.7920954 -0.90847677 2.862052 2415 131
2.9938447 -0.91175848 2.8690698 2430 139
3.1546817 -0.92198187 2.8990128 2874 144
3.3451099 -0.92248511 2.8973334 2854 151
3.3728559 -0.92242962 2.8966765 2839 152
3.5525475 -0.92412078 2.8989849 2806 158
3.9317453 -0.92000008 2.8792448 2677.5 170.5
0.64166188 -0.81816661 2.8981991 3347 2.5
0.68727809 -0.81690699 2.8928437 3352 6
0.70705235 -0.81662917 2.8914776 3381.5 7.5
0.78892511 -0.81833971 2.896009 3370.5 13.5
0.80902439 -0.81814623 2.894937 3401 15
0.88418508 -0.81846642 2.8946447 3376 20.5
0.91976345 -0.81970096 2.8983636 3355 23
0.9826957 -0.82023764 2.8990755 3345.5 27.5
1.0023069 -0.81903642 2.8944235 3315 29
1.0803304 -0.81957406 2.8948512 3351.5 34.5
1.1012185 -0.81922859 2.8932228 3342 36
1.1893982 -0.82076526 2.8970146 3322 42
1.2099302 -0.81982589 2.8932781 3305.5 43.5
1.3140216 -0.8205356 2.8938217 3267.5 50.5
1.3914173 -0.82194382 2.8973618 3311 55.5
1.4841044 -0.82226229 2.8967295 3177.5 61.5
1.5089655 -0.82311797 2.899303 3032 63
1.9887227 -0.82515317 2.8974075 3121 91.5
2.0166862 -0.82559127 2.8984349 3094 93
2.1081581 -0.82559025 2.896688 3079 98
2.385365 -0.82787424 2.8995388 3048 112
2.4019265 -0.8265475 2.8944981 3064 113
2.5521591 -0.82801515 2.8968618 3042 120
2.7105761 -0.82959622 2.8994732 2986 127
2.7890329 -0.82222366 2.8717217 2657.5 131.5
2.8324685 -0.81784725 2.8553078 2178 134
3.0343766 -0.82019049 2.8598049 2170 142
3.1813321 -0.83214325 2.8995724 2872 146
3.400991 -0.83250588 2.8966773 2802 154
3.9788461 -0.82962388 2.8754003 2647 173
0.64362717 -0.7281034 2.8960474 3379 3
0.6633358 -0.72805482 2.8954327 3377.5 4.5
0.73648709 -0.728477 2.8955679 3382.3335 10
0.77771342 -0.72978437 2.8999338 3359 13
0.82223213 -0.72728336 2.8889537 3376.25 16.5
0.85892868 -0.73018646 2.899817 3371 19
0.9240579 -0.72755647 2.8878803 3364.6667 24
1.0227702 -0.72941196 2.8932204 3311 31
1.0660448 -0.73043722 2.8964114 3345.6667 34
1.121691 -0.72985303 2.8928828 3351 38
1.1663578 -0.73113477 2.8970728 3330 41
1.2301012 -0.73037744 2.8926773 3307 45.5
1.3262818 -0.73086154 2.8925705 3283.3335 52
1.357756 -0.7318458 2.8958483 3310 54
1.4262774 -0.73219717 2.8957982 3285.5 58.5
1.4588919 -0.73329228 2.8994963 3249.5 60.5
1.5260074 -0.73198527 2.8928242 3183 65
1.7712439 -0.73357391 2.8939731 3157 80
1.8164647 -0.7349593 2.898567 3186 82.5
2.0164733 -0.73485291 2.8938801 3119 94
2.1357121 -0.73501968 2.8920095 3093.5 100.5
2.2751923 -0.73716587 2.8976474 3039 107.5
2.4484787 -0.738186 2.8980484 3072 116
2.5772099 -0.73896658 2.8984377 3033 122
2.6003339 -0.73942381 2.8997791 3039 123
2.8358822 -0.73616654 2.8816965 2628 134
3.1131818 -0.73816359 2.8838007 2377 145
3.3211973 -0.74330378 2.8999887 2841 152
4.0405064 -0.74186152 2.8788826 2635.5 175.5
2.1548166 -0.65004539 2.8990684 3118 102
2.2312326 -0.65031374 2.8984528 3093 106
2.270262 -0.65048045 2.8982739 3070 108
2.5276337 -0.65192306 2.898663 3047 120.5
2.5815735 -0.65214926 2.898397 3006 123
2.7383537 -0.65286666 2.8978965 2981 130
2.8743176 -0.65226752 2.8918803 2878 136
3.1859787 -0.65514058 2.8974991 2501 148
3.2287211 -0.65577924 2.8993878 2846 149.5
3.4416606 -0.65702903 2.8999672 2815 157
4.0799422 -0.65505719 2.8755679 2517.5 177.5
0.62700379 -0.64153981 2.8970222 3405 2
0.6751191 -0.64174694 2.8968091 3401.3335 5.666667
0.71251523 -0.64194006 2.89679 3363 8.5
0.78037947 -0.64150918 2.8931847 3387.3335 13.666667
0.82473534 -0.6414578 2.8918808 3366 17
0.87361145 -0.64307159 2.8980787 3380.25 20.5
0.91859949 -0.64123833 2.8886144 3383.6667 24
0.98842549 -0.6424548 2.8924916 3365 29
1.0167313 -0.64297199 2.8941736 3354 31
1.0992454 -0.6423614 2.8893933 3351 37
1.1296117 -0.64373463 2.894938 3353 39
1.172928 -0.64419436 2.8959951 3310.5 42
1.2067099 -0.64305604 2.8899779 3349 44.5
1.291056 -0.64560717 2.8996048 3293 50
1.3174591 -0.64403594 2.8917866 3309.3335 52
1.3959837 -0.64615983 2.8996015 3297 57
1.4242401 -0.64523923 2.8947124 3258.6667 59
1.5171574 -0.64577889 2.8949389 3251.6667 65
1.5822589 -0.64694035 2.8986785 3227 69
1.630121 -0.64704788 2.8980165 3218.3335 72
1.7372378 -0.64777434 2.8987541 3226 78.5
1.7626705 -0.64803308 2.8993239 3182 80
1.9783804 -0.6487329 2.8973227 3138 92.5
2.006654 -0.64929807 2.8992243 3109 94
2.0962279 -0.64905965 2.8959754 3070 99
2.1128733 -0.6485182 2.8930993 3057 100
2.2474704 -0.64944565 2.8940935 3077 107
2.8800476 -0.64817101 2.8730185 2659 137
2.9358363 -0.64461148 2.8554041 2438 140
0.59761667 -0.55497307 2.8955803 3395 0
0.62941873 -0.55443138 2.8918219 3434 2.5
0.68895769 -0.55552095 2.8959465 3383 7
0.72103453 -0.55497473 2.8921559 3382.25 9.5
0.78752762 -0.55565608 2.8939214 3380 14.5
0.82673395 -0.55524093 2.8906279 3391.25 17.5
0.88132143 -0.55617124 2.8940456 3373 21.5
0.90743303 -0.55566257 2.8906202 3402.5 23.5
0.99068785 -0.55691147 2.8949308 3391 29.5
1.0263733 -0.55775279 2.8984022 3370.3335 32
1.0806416 -0.55715263 2.8937078 3370.3335 36
1.1231126 -0.55747551 2.8942394 3337.6667 39
1.1859946 -0.55719686 2.8910117 3367 43.5
1.2073567 -0.55720276 2.8904486 3330 45
1.2771022 -0.55845308 2.895143 3335.3335 49.666668
1.3110511 -0.55846107 2.8942404 3316 52
1.3854874 -0.55877584 2.8938403 3286 57
1.4158643 -0.55898279 2.894093 3310.6667 59
1.4916487 -0.55903983 2.8922875 3283 64
1.5222218 -0.55898923 2.8911681 3266 66
1.6193155 -0.56028789 2.8953578 3257 72
1.6592562 -0.56034744 2.8945627 3228 74.5
1.7347726 -0.56129706 2.8975008 3264 79
1.7586219 -0.56104517 2.8955007 3220.5 80.5
1.941111 -0.56261706 2.8987644 3168 91
1.9749668 -0.56229562 2.896117 3152.6667 93
2.0992589 -0.56205171 2.8913653 3122 100
2.1287122 -0.56258494 2.8933752 3094 101.5
2.2385881 -0.56439561 2.8999262 3091 107
2.2646699 -0.56371629 2.8955958 3087 108.5
2.3978474 -0.56507444 2.8990974 3058 115
2.5778728 -0.56605029 2.8992667 3042.5 123.5
2.6969573 -0.56596076 2.8954792 3006 129
2.8761663 -0.56758195 2.8990958 2997.5 136.5
2.9230309 -0.56514072 2.8848388 2771.3335 139
2.9628847 -0.55891687 2.8507066 2079 142
3.1907744 -0.56377381 2.8701377 2169 150
3.2495568 -0.56948882 2.8988264 2678 151
3.2769186 -0.5695855 2.8985779 2891 152
3.3914289 -0.57039183 2.8996708 2877 156
3.4123123 -0.56918311 2.8926766 2821 157
3.4775846 -0.57055718 2.8981514 2798 159
3.6599364 -0.57124209 2.8967125 2801 165
3.9284339 -0.57318103 2.8995314 2730 173
4.1144533 -0.57026893 2.8789048 2627.6667 179
0.59529155 -0.46977001 2.8969419 3433 0
0.62458235 -0.46911645 2.8918509 3408 2.3333335
0.68510139 -0.46943912 2.8918948 3398.6667 7
0.72424239 -0.46959662 2.8915997 3402.3335 10
0.77684534 -0.46990061 2.8917866 3409 14
0.82409877 -0.47066987 2.8950872 3396.75 17.5
0.87605405 -0.47005349 2.8894839 3396.5 21.5
0.9163692 -0.47023964 2.8893318 3377.5 24.5
0.97714543 -0.47038305 2.8882358 3392.6667 29
1.0209469 -0.47192535 2.8965309 3373.6667 32
1.0768222 -0.47237584 2.8975348 3363 36
1.1470177 -0.47266948 2.8970771 3355 41
1.1746876 -0.47247383 2.8949304 3330 43
1.2099084 -0.47242177 2.8934417 3339 45.5
1.2728906 -0.47191381 2.8881602 3322.3335 50
1.3207426 -0.47360605 2.8972688 3295.5 53
1.3784978 -0.47327328 2.8932652 3327 57
1.4175375 -0.47396731 2.8963614 3314.5 59.5
1.4820135 -0.47289842 2.8874891 3289.6667 64
1.5248313 -0.47444817 2.8958635 3290.5 66.5
1.5871196 -0.47459453 2.8947363 3232.5 70.5
1.6184226 -0.47459114 2.8936837 3224.5 72.5
1.6841638 -0.47527122 2.8958125 3235 76.5
1.72418 -0.4751924 2.893997 3237.6667 79
1.7759992 -0.47600058 2.8973927 3231 82
1.8325949 -0.47561109 2.8930697 3156.5 85.5
1.9451092 -0.47614658 2.8927448 3182 92
1.9717526 -0.4762969 2.8928163 3133.5 93.5
2.0012212 -0.47708288 2.8968084 3143 95
2.074245 -0.47752309 2.8971825 3116 99
2.1206899 -0.47777891 2.8972681 3116 101.5
2.2267637 -0.47864318 2.8992312 3088 107
2.2625747 -0.47818312 2.8951471 3085 109
2.3436878 -0.47895625 2.897357 3079 113
2.3842096 -0.47916609 2.8973472 3099 115
2.4048457 -0.47930542 2.8975472 3079 116
2.4865606 -0.47942021 2.8955808 3043 120
2.5185018 -0.47959647 2.8956416 3041.5 121.5
2.6399426 -0.48051015 2.8974104 3015 127
2.6697097 -0.47998643 2.8931234 2999 128.5
2.708878 -0.48110262 2.8988807 2994 130
2.7983305 -0.48102573 2.8954492 2941 134
2.9693632 -0.48019335 2.8845606 2787 141.5
3.0292902 -0.47612467 2.8568978 2126 145
3.2171428 -0.4776054 2.86006 2395 152
3.3276887 -0.48399818 2.8967819 2872.5 154.5
3.3834701 -0.48410827 2.8956394 2850 156.5
3.8397062 -0.48711768 2.8996139 2744 171
4.0854387 -0.48843259 2.8998227 2690 178
4.1752043 -0.48442012 2.8715322 2627.5 181.5
3.4411895 -0.40109327 2.8954105 2852 159
3.6737375 -0.40261695 2.8978558 2779 166.5
3.7241364 -0.4031077 2.8996294 2772 168
3.8886027 -0.40375245 2.898005 2752 173
4.0660081 -0.40476656 2.8987217 2718 178
4.2097793 -0.40334707 2.8819361 2624 182.5
0.59346461 -0.38669899 2.8985071 3434 0
0.6273244 -0.38134944 2.8938351 3407.4001 130
0.67483425 -0.36319456 2.8939445 3431.3 510.60001
0.71664488 -0.37226442 2.8926508 3418.625 322.625
0.77706218 -0.3634797 2.8942039 3405.5386 487.23077
0.82482189 -0.3801069 2.8899119 3422 138.8
0.87294906 -0.35933009 2.8958881 3398.8889 555
0.92167729 -0.37054244 2.8956339 3399.1111 355.11111
0.97124046 -0.3589994 2.8953412 3399.7 556
1.0234826 -0.38852543 2.8953495 3377.25 32.5
1.0769807 -0.36609507 2.8957126 3388.3335 416.91669
1.1196878 -0.38863254 2.892307 3381.5 39.5
1.1770645 -0.36626899 2.8948717 3378.125 391.625
1.2274107 -0.38958997 2.8953893 3338 47
1.282545 -0.36157182 2.8960884 3353 457.75
1.3264356 -0.38921171 2.8884723 3333 54
1.3735026 -0.36085686 2.8977394 3343.4001 480.20001
1.4331828 -0.39041615 2.893508 3322 61
1.4786136 -0.38124943 2.8979506 3287 193
1.5259116 -0.39107451 2.8948765 3272 67
1.5735821 -0.39149818 2.8962407 3254 70
1.6230395 -0.37799495 2.8963447 3267.3335 239.33334
1.6630403 -0.39236879 2.899385 3247.5 75.5
1.7211294 -0.37435043 2.8959002 3269.5 322.5
1.7653192 -0.39189029 2.8915613 3211.6667 82
1.8687062 -0.39282191 2.8946178 3171.6667 88
1.9121239 -0.35579473 2.8992186 3229 553
1.9837282 -0.39365011 2.896405 3146 94.5
2.0669174 -0.39442781 2.8990822 3129 99
2.1106696 -0.39420533 2.8955975 3126.5 101.5
2.1698434 -0.39502469 2.8995638 3121.5 104.5
2.2637439 -0.39509022 2.8962922 3099.5 109.5
2.424583 -0.39592892 2.8963163 3069 117.5
2.5414648 -0.39668629 2.8974798 3040 123
2.5617447 -0.3965959 2.8959632 3033 124
2.6736248 -0.39739251 2.8976321 3027 129
2.7317231 -0.39786565 2.8989596 3015.5 131.5
2.8766217 -0.39750263 2.8903146 2955 138
2.9093225 -0.39877784 2.8988786 2915 139
3.0134058 -0.39512664 2.8663993 2629 144.5
3.0712893 -0.3946619 2.8604681 1918 147
0.59080738 -0.30175591 2.8929231 3417 0
0.63627833 -0.31683382 2.8937879 3429 385.39999
0.67883503 -0.31766683 2.8914034 3431.3333 356.44446
0.7184782 -0.31580648 2.893364 3423.2729 407.27274
0.78384417 -0.31546167 2.8930418 3410 321.375
0.81580627 -0.31788349 2.891001 3406.7778 423.66666
0.87695086 -0.31939036 2.8943794 3401.875 321.375
0.91920573 -0.31283697 2.893296 3404.8572 279.85715
0.98143589 -0.32246691 2.8931243 3391.3 438.60001
1.0214701 -0.31732631 2.8942182 3386.4287 363.42859
1.0818517 -0.32156861 2.8944497 3403.1431 444.14288
1.1151097 -0.31035477 2.8925416 3371.2 266
1.1747707 -0.31800601 2.8969436 3368.3333 352.66666
1.2160878 -0.31180078 2.8894217 3364 184.75
1.2831151 -0.3335318 2.8963621 3373 592.5
1.3183832 -0.31232029 2.8918362 3336 188.25
1.3952962 -0.30461597 2.8948641 3350.5 322
1.4302489 -0.30654496 2.8973789 3319.5 61
1.4660313 -0.30627304 2.8927777 3308 63.5
1.5156521 -0.31699952 2.8955624 3312.2 271.20001
1.5729649 -0.30476648 2.8975487 3259.5 320.5
1.6200265 -0.30627412 2.8953218 3269.4001 173
1.6812122 -0.30795091 2.8984513 3235.3335 77
1.7358378 -0.30777645 2.8938489 3226.5 80.5
1.7764561 -0.30783379 2.8923097 3206.6667 83
1.8272557 -0.30815905 2.8929362 3181.5 86
1.8787378 -0.3084608 2.89329 3185.6667 89
1.9165242 -0.30915579 2.8983157 3174 91
1.9766054 -0.30922756 2.8959069 3152 94.5
2.012527 -0.30943626 2.8961356 3123.5 96.5
2.0958505 -0.31005636 2.8980346 3136 101
2.121989 -0.30994898 2.895592 3122.5 102.5
2.1504946 -0.31015652 2.8961952 3133 104
2.2362833 -0.31058586 2.8960462 3112 108.5
2.2740963 -0.31062847 2.8945045 3077.5 110.5
2.3842762 -0.3112388 2.8949053 3087 116
2.4267347 -0.31162971 2.8966272 3075 118
2.5285263 -0.31176838 2.8927186 3036 123
2.553942 -0.31235534 2.8973017 3036 124
2.7079535 -0.31302184 2.8959839 3042 131
2.8240249 -0.31360406 2.8957949 2974 136
2.870363 -0.31369713 2.8943172 2969 138
3.0378318 -0.33263966 2.8771739 2708.1111 458.88889
3.07372 -0.32953697 2.8686903 2498.5835 438
3.1136637 -0.31633699 2.8670936 2199 322
3.1731167 -0.33848381 2.8516214 2789.3335 492
3.2567413 -0.33935291 2.8533216 2624.5 489
3.3213656 -0.32192957 2.8882856 2672.5 488
3.3686659 -0.31619704 2.8935108 2490 157
3.4137483 -0.31657377 2.8949533 2843.5 158.5
3.5463066 -0.33459297 2.8530722 2442 479
3.5862768 -0.31558079 2.8759694 2649 165
3.601033 -0.31684655 2.8879392 2651 165
4.0343728 -0.31640577 2.8732364 2128 465
4.1497812 -0.31991741 2.8902504 2683 181
4.2403173 -0.32892489 2.8693609 2662 429
4.2580576 -0.31780836 2.8859582 2675.3335 367.66669
0.63503259 -0.26821071 2.8915229 3446 640
0.70660126 -0.26817262 2.894784 3398 634.5
0.78508109 -0.26786655 2.8957686 3433 628.5
0.80489552 -0.26780465 2.896168 3448 627
0.88342714 -0.2670247 2.8925076 3406.3335 621
0.99287605 -0.26704422 2.898258 3418 613
1.0664389 -0.26607126 2.8924522 3419.5 607.5
1.1026727 -0.26634473 2.8969748 3357 605
1.4901001 -0.26451951 2.8987525 3348 578.5
1.6144186 -0.2637583 2.8976016 3293.5 570.5
1.7201809 -0.26336989 2.899164 3291 564
3.0747585 -0.27323097 2.8776903 2598.6667 496.5
3.1168523 -0.27204877 2.8682489 2221 494.5
3.4555163 -0.25307292 2.8863194 2774 483
3.5170209 -0.29077736 2.8841381 2316 481
3.6866782 -0.28831574 2.8704472 2944 475
3.9861531 -0.25139436 2.8968091 2705 467
4.0635672 -0.28946435 2.89731 2346 465
4.2615871 -0.28623247 2.8782246 2687 459
0.58981085 -0.22060563 2.8944607 3469 0
0.62652349 -0.22090566 2.8920228 3430.6001 129.8
0.68053764 -0.22150841 2.8930492 3437.1667 321.66669
0.72258079 -0.22123681 2.8936882 3432.6667 10.333334
0.77321702 -0.22139877 2.8914638 3425.375 322
0.83252126 -0.22180195 2.895282 3427.6001 139.60001
0.87813163 -0.22121868 2.8895764 3421.5 321.5
0.9195838 -0.22190852 2.8925493 3413 144.2
0.97567809 -0.22183149 2.8952475 3393 262.80002
1.0277752 -0.22189529 2.8889241 3376 178.5
1.0765224 -0.22169502 2.8957653 3378 321.5
1.1346939 -0.2233305 2.8931942 3375.6667 41
1.1751013 -0.22252017 2.8928885 3365.5 183
1.2214168 -0.22299273 2.89411 3358.6001 157.60001
1.2772011 -0.2240712 2.89326 3362 51
1.3399174 -0.22390625 2.8863444 3340 55.5
1.3775454 -0.22298506 2.8920019 3321 190
1.4409907 -0.22508259 2.8955994 3284 62
1.4693773 -0.22493026 2.8913708 3300 64
1.5254512 -0.22555724 2.8961425 3270 67.5
1.5778019 -0.22551823 2.8917661 3284 71
1.619936 -0.22609106 2.8967903 3257.5 73.5
1.6720574 -0.22584206 2.8894603 3223 77
1.7083379 -0.22651775 2.8963673 3261 79
1.777319 -0.22623247 2.8872919 3220.5 83.5
1.8078797 -0.22704023 2.8964851 3227 85
1.8829871 -0.22725186 2.893991 3186.5 89.5
1.9160482 -0.2272459 2.8914914 3175 91.5
1.9999341 -0.22816642 2.8983831 3145 96
2.0257874 -0.22818302 2.8967292 3149.5 97.5
2.0712976 -0.22842035 2.8967614 3140.6667 100
2.1279302 -0.22883093 2.8984313 3154 103
2.1717653 -0.22875193 2.8941112 3111 105.5
2.2116466 -0.22912756 2.8965111 3116.5 107.5
2.2871246 -0.22930744 2.8935409 3108.5 111.5
2.3272238 -0.2295568 2.8941383 3096 113.5
2.4275737 -0.22997725 2.8927541 3088.5 118.5
2.4636331 -0.23058529 2.89872 3083 120
2.5676796 -0.2309223 2.8958855 3066 125
2.6224048 -0.23120341 2.8958635 3025 127.5
2.7343726 -0.23173001 2.8951316 3011.5 132.5
2.7833865 -0.23218536 2.8979917 3001 134.5
2.9126821 -0.23269261 2.8957202 2932 140
3.0954213 -0.20825329 2.8782859 2707 495.5
3.1137846 -0.21910411 2.8640642 2308.75 321
3.1630664 -0.23101884 2.8537521 1591 151.5
3.283201 -0.20827504 2.8898737 1528 489
3.3310399 -0.23293108 2.8685281 1462 157
3.4449687 -0.23429233 2.8794594 2674 160.5
3.9547586 -0.23755184 2.8883195 2732 176
4.0233765 -0.23869786 2.8995161 2677.5 177.5
4.1145043 -0.23917279 2.8995764 2653 180
4.1892209 -0.23954903 2.8994396 2712 182
4.2857804 -0.23449649 2.8829198 2660.75 390
4.3062229 -0.21948767 2.8681037 2613 321.5
0.63969046 -0.16935232 2.8896194 3422.5 639.5
0.69277704 -0.1696462 2.8980865 3470.5 635.5
0.71715105 -0.16904287 2.890969 3420 633.5
0.81611657 -0.1688582 2.895834 3449 626
0.88922524 -0.16855484 2.8969398 3432 620.5
0.92306435 -0.16847758 2.8983929 3429 618
0.99080729 -0.16817716 2.8991292 3404 613
1.011065 -0.16803393 2.8985534 3420 611.5
1.0855793 -0.16742639 2.8952327 3393.3335 606
1.1121004 -0.16705152 2.8916862 3409 604
1.1908873 -0.16692305 2.8958354 3388.5 598.5
1.2127136 -0.16689576 2.897109 3355 597
2.7916465 -0.15011838 2.8998713 3021 135
2.9213514 -0.15069246 2.8976016 2952 140.5
2.9579298 -0.15086319 2.8971729 2931 142
3.1416433 -0.15632334 2.8879902 2873 494
3.1747446 -0.15267316 2.8779609 2761.6667 265.33334
3.2062941 -0.15363061 2.8799894 2724 322.5
3.2703171 -0.1518546 2.8823366 2687 154.5
3.3130722 -0.15299957 2.8787951 2408.3335 267
3.8942268 -0.15476227 2.8749199 2789 175
3.9619992 -0.15613118 2.8993342 2791 176
4.3381252 -0.1570147 2.8740425 2590.5 187
4.353579 -0.1575222 2.8842878 2599 187
0.58914655 -0.1385866 2.8957036 3433 0
0.62322819 -0.13419963 2.8933706 3428.2 130
0.68281621 -0.13314733 2.8915524 3418 164
0.7205236 -0.12757078 2.8942575 3431.6667 321.5
0.77538329 -0.12921022 2.8925683 3435.7144 277.85715
0.82300347 -0.13366629 2.893095 3431 170.75
0.87855572 -0.12983131 2.8894985 3419.2 261.39999
0.92637604 -0.13153285 2.8890877 3405.5 222.5
0.97290969 -0.12911955 2.8873179 3406.1431 280
1.0182518 -0.13430922 2.8967066 3389.75 177.75
1.0777344 -0.13204753 2.8947978 3390.8335 226.16667
1.1252367 -0.14117858 2.8915718 3367.75 40.5
1.1772449 -0.13457814 2.894655 3369.25 182.75
1.224703 -0.14176024 2.8932183 3353.75 47.5
1.277097 -0.13480885 2.8940558 3351.25 186.25
1.3258492 -0.14227401 2.8930311 3343.25 54.5
1.3696909 -0.14246577 2.8922091 3337 57.5
1.436595 -0.14278315 2.8915472 3318 62
1.4804959 -0.13270596 2.8936629 3311.3335 235.66667
1.5452745 -0.14347321 2.8946519 3281 69
1.5663393 -0.14339107 2.8900833 3262 70.5
1.6142795 -0.12233955 2.8970461 3300 405
1.669463 -0.14392531 2.890142 3262.3335 77
1.723218 -0.14457409 2.8990407 3226.3335 80
1.7693542 -0.14456972 2.8932385 3206.6667 83
1.800709 -0.14458957 2.8898416 3212 85
1.8891875 -0.14528227 2.895504 3187 90
1.9230595 -0.14540103 2.894165 3178.6667 92
2.0282686 -0.14587018 2.8924074 3155.6667 98
2.0669248 -0.14621556 2.895905 3144 100
2.165019 -0.1464843 2.8902264 3125.5 105.5
2.2273064 -0.13419305 2.8975506 3161 250.66667
2.2840922 -0.14729783 2.8950047 3091 111.5
2.3161011 -0.1475926 2.8981109 3105 113
2.4212506 -0.14781579 2.89047 3054 118.5
2.4682543 -0.1483355 2.8971117 3096 120.5
2.5019104 -0.14861377 2.8996193 3044 122
2.5846679 -0.14888519 2.8958991 3042 126
2.604296 -0.14887951 2.8933394 3015 127
3.2593145 -0.10190742 2.8743501 2479.3335 489
4.3202124 -0.14938295 2.8752534 2664 457
0.58815008 -0.054287288 2.8926513 3410 0
0.63287097 -0.055454403 2.8925896 3435 321.25
0.66862333 -0.055213373 2.8899353 3428.8335 216.83334
0.72603905 -0.055474866 2.8922455 3433.375 321.5
0.77404022 -0.05520862 2.8896222 3416.5 14.5
0.8227669 -0.055345416 2.8838696 3392.3335 220.83334
0.87675798 -0.054569177 2.862016 2800 470.25
0.92602348 -0.054832011 2.8556395 2050.5 323
0.98040676 -0.054061472 2.8697991 2637 613
1.0269774 -0.05535385 2.8786955 3234.5 322.5
1.0760409 -0.056801181 2.8926487 3358 37
1.1240567 -0.055710364 2.8908739 3387.2859 281.57144
1.1740479 -0.057318654 2.8936844 3363.3335 44
1.2212113 -0.056787174 2.8944499 3361.4001 157.40001
1.2751616 -0.057874642 2.8965883 3372.6667 51
1.3268615 -0.056350943 2.8924408 3340.5 232.5
1.4251926 -0.05852177 2.8861361 3308 61.5
1.4683502 -0.058882348 2.8976071 3274 64
1.5269248 -0.059115898 2.8919408 3290.6667 68
1.5753574 -0.059406757 2.8953693 3277 71
1.6200082 -0.059576761 2.8903835 3277 74
1.6707786 -0.059899837 2.8954864 3250.3335 77
1.736089 -0.060241561 2.8959181 3227 81
1.7661594 -0.060335003 2.8908136 3223.3335 83
1.8194244 -0.060672216 2.8960226 3197.6667 86
1.8664229 -0.060836516 2.8895595 3205.6667 89
1.9408273 -0.06131842 2.8977373 3184 93
1.982697 -0.061492588 2.8942866 3166 95.5
2.0157518 -0.061614618 2.8902788 3172 97.5
2.0825348 -0.06201629 2.8950562 3127.3335 101
2.127162 -0.062219262 2.8928173 3142 103.5
2.1749418 -0.062478848 2.893929 3110.3335 106
2.2712224 -0.062977001 2.8940997 3120.6667 111
2.3118095 -0.063205555 2.8957114 3059 113
2.3829966 -0.063586421 2.8968792 3102.5 116.5
2.414629 -0.063611865 2.8854623 3063 118.5
2.5357351 -0.064319961 2.8924413 3052 124
2.5670078 -0.064466417 2.8912225 3050 125.5
2.6036358 -0.064709798 2.8957589 3013 127
2.6720338 -0.065086551 2.897778 3020 130
2.7248781 -0.065307848 2.8935452 3009 132.5
2.7621443 -0.06553524 2.8964815 2978 134
2.8640313 -0.066005141 2.8919086 2967.5 138.5
2.9150226 -0.066298202 2.8944259 2900.5 140.5
3.0328751 -0.066970564 2.8998299 2922 145
3.0672827 -0.067099974 2.8958559 2922 146.5
3.1359539 -0.067492217 2.8990438 2867 149
3.2285151 -0.067951679 2.8975935 2889 152.5
3.270076 -0.068169139 2.8978682 2836 154
3.3840961 -0.068766028 2.8986473 2846 158
3.4105761 -0.068725832 2.8839855 2779.5 159.5
3.4806552 -0.069199763 2.893352 2826 161.5
3.5333762 -0.069396183 2.8871069 2854 163.5
3.6957455 -0.070138581 2.8792858 2778 169
3.7379839 -0.07044889 2.8869779 2770 170
3.78194 -0.070778988 2.8955772 2821 171
3.8633304 -0.071174674 2.8936112 2792 173.5
3.9182832 -0.071488954 2.8961952 2782 175
4.1736455 -0.072823003 2.8977103 2693 182
4.3483043 -0.096064925 2.8696852 2654 456
4.3694229 -0.079554006 2.8812356 2632.5 255.25
4.3836107 -0.036828429 2.881135 2633.5 455.5
0.58815008 0.023737665 2.8930721 3436 0
0.62258804 0.023597579 2.8954837 3440.6667 2.6666667
0.6746667 0.016624128 2.8914118 3439.4287 276.42859
0.72090763 0.018038996 2.8940978 3434 218.16667
0.7785731 0.016592551 2.8853312 3408.2859 277.42859
0.82201451 0.019050973 2.879462 3209.5 169.5
0.92831385 0.0092944857 2.8524039 2477.5 616.5
1.0252666 0.012464324 2.8684564 2560.75 466.25
1.0672759 0.016479336 2.883255 3056 265.20001
1.1260896 0.016563756 2.893259 3386.2 266
1.1740324 0.014795908 2.8937578 3379.8572 361.42859
1.2222388 0.020428948 2.8904047 3339.75 47.5
1.2727709 0.020181537 2.891242 3344.3335 51
1.3312099 0.019891847 2.8919802 3329.6667 55
1.370277 0.017564757 2.8927159 3325.5 190.25
1.4399576 0.019241195 2.8861535 3307 62.5
1.4749808 0.019214444 2.8960741 3303 64.5
1.5352576 0.018867658 2.8937387 3286 68.5
1.5748107 0.017064057 2.8909721 3292 196.25
1.6057851 0.018508082 2.8939867 3301 73
1.6751716 0.018079957 2.8894315 3245.5 77.5
1.7294838 0.016367478 2.8991261 3260.6667 241.33334
1.7651485 0.017620098 2.8896756 3236.6667 83
1.8099744 0.017470408 2.8949218 3193.5 85.5
1.8783512 0.01705654 2.8909509 3180.6667 89.666672
1.9281574 0.016819576 2.892221 3191.5 92.5
1.9591945 0.016773343 2.8995588 3169 94
2.0234089 0.016277896 2.8889389 3151 98
2.070267 0.016071996 2.8912332 3116.5 100.5
2.1180973 0.015864199 2.8937287 3126 103
2.183568 0.015522599 2.893455 3148 106.5
2.2160571 0.015436823 2.8987238 3155 108
2.2777071 0.014990998 2.8904533 3096 111.5
2.3189306 0.014813839 2.892729 3103.5 113.5
2.3743029 0.014631731 2.8993905 3105 116
2.4174612 0.014258242 2.8896391 3094 118.5
2.4553535 0.014192723 2.8980117 3077 120
2.5686417 0.013543952 2.8938162 3040.5 125.5
2.6056163 0.013429387 2.8987186 3054 127
2.6958368 0.012982268 2.8998656 3025 131
2.7334309 0.012653396 2.8911433 2981 133
2.7714207 0.01251239 2.8946767 2990 134.5
2.8865161 0.011861846 2.8909678 2951.5 139.5
2.9278882 0.011723761 2.8958147 2930 141
2.9522672 0.011593367 2.8955066 2923 142
3.0687256 0.0110321 2.8980126 2910 146.5
3.1097393 0.010850491 2.8999312 2926 148
3.1622245 0.010574059 2.8995452 2887 150
3.2796211 0.0098948199 2.8947496 2887.5 154.5
3.3513584 0.0095435521 2.8959363 2842 157
3.484858 0.0088834502 2.8977308 2813.5 161.5
3.5291302 0.0086441245 2.8970082 2826 163
3.5847569 0.0082853399 2.8923519 2841 165
3.7098925 0.0076238704 2.8912768 2792 169
3.7506022 0.0075133606 2.8976829 2761 170
3.8661227 0.0069014272 2.8966069 2773.5 173.5
3.9134719 0.0066093486 2.8935032 2769 175
3.9515409 0.0064502386 2.8958948 2745 176
4.1318016 0.0055166567 2.8955903 2698 181
4.1720061 0.005338992 2.8974943 2669 182
4.4195037 0.013122794 2.8783979 2589 295.20001
0.59382385 0.095484674 2.8875482 3438 0.5
0.62932086 0.080992959 2.8840427 3436.3335 427
0.67059833 0.086053893 2.8881967 3446.5715 276.71429
0.73020101 0.08470507 2.8908534 3422 321.33334
0.77138865 0.090540022 2.8883476 3429.8 137.60001
0.8216632 0.086052626 2.8922453 3397.2859 278.85715
0.86498892 0.08424855 2.8727818 3025.75 321.5
0.94901168 0.074822746 2.8541589 2056 615
1.0779321 0.081313625 2.8769217 2898.1667 417.16669
1.1278663 0.084573247 2.891026 3394 322.5
1.1753424 0.092839018 2.8961754 3371.6667 44
1.2228572 0.089247547 2.8906026 3368.8 157.2
1.2803777 0.088540778 2.8950768 3344.25 186
1.3225917 0.087094828 2.8931222 3333.5 232.83334
1.3767579 0.091691725 2.8935192 3334 58
1.4308118 0.088640861 2.8908439 3313.6001 165.40001
1.4817541 0.091123894 2.8928738 3290 65
1.5334593 0.090689585 2.8887753 3297 68.5
1.5749013 0.090675384 2.8936515 3279.6667 71
1.6433966 0.084797025 2.8959334 3262.5 321.5
1.6733313 0.087827131 2.8905139 3259 175.40001
1.729157 0.09003146 2.8973546 3243 80.5
1.7685244 0.08969368 2.8940601 3225.6667 83
1.8048065 0.089708164 2.8989871 3199 85
1.8828239 0.088841185 2.8876295 3190.6667 90
1.9295065 0.088819519 2.8929837 3183 92.5
1.981866 0.088522449 2.8923221 3175 95.5
2.0123932 0.088049307 2.8846054 3162.5 97.5
2.0674922 0.088359073 2.8991206 3151 100
2.1277523 0.087795764 2.8929474 3144 103.5
2.1774831 0.087695822 2.8967721 3105.3335 106
2.2154615 0.087493494 2.8966136 3102 108
2.2684019 0.086939514 2.8897462 3120.3335 111
2.3219924 0.086894073 2.8953896 3096.5 113.5
2.3550735 0.086884104 2.8993151 3122 115
2.4184113 0.086156897 2.8895242 3084.5 118.5
2.4653816 0.086188406 2.896214 3061 120.5
2.566998 0.085437819 2.890676 3045.5 125.5
2.6036358 0.085434414 2.89521 3036 127
2.6958368 0.08509849 2.8986201 3039 131
2.7258878 0.084760219 2.8941398 3008 132.5
2.7751822 0.084641658 2.8974547 3014 134.5
2.8820796 0.08409626 2.8975971 2947 139
2.9143224 0.083752118 2.8932495 2947.5 140.5
2.9579298 0.083801195 2.8999448 2912 142
3.0828588 0.083076477 2.8979771 2951 147
3.1097393 0.082969069 2.8987398 2923 148
3.227401 0.082258858 2.8962107 2873 152.5
3.2678444 0.08202105 2.8954954 2870 154
3.4414742 0.081209458 2.8975425 2833 160
3.4683416 0.080977209 2.895252 2779 161
3.5171816 0.080857828 2.8984895 2802.5 162.5
3.6818409 0.079800665 2.893404 2813 168
3.7114644 0.079566151 2.8914058 2809 169
3.8858874 0.07891842 2.8975573 2786 174
3.9182832 0.078687839 2.8960044 2776 175
3.9706178 0.078412853 2.8958795 2728 176.5
4.1014686 0.077877477 2.8992858 2723 180
4.1695471 0.07733988 2.8947263 2692 182
4.4338608 0.081834495 2.89112 2607.3335 277
4.4613318 0.080765471 2.8641868 2579 278
0.63958693 0.14185506 2.8906407 3432 639.5
0.66563988 0.14208129 2.8927829 3454 637.5
0.73634011 0.14238419 2.8913441 3405 632
0.76315439 0.14267261 2.8948448 3434.6667 630
0.83456516 0.14292344 2.892107 3377 624.5
0.86501658 0.14267269 2.8825996 3335 622
0.97573507 0.14192174 2.8517799 1833 613
1.0798017 0.14280051 2.8597555 2675 605.5
1.1264957 0.14659865 2.8674266 3011.6001 266.60001
1.2280247 0.14741203 2.8919952 3385.3335 322
1.2994571 0.14561303 2.8989177 3371 591
1.3251747 0.14944001 2.8910449 3346.25 54.5
1.3612653 0.14916416 2.8895831 3339 57
1.4287691 0.14887434 2.8905404 3305.75 61.5
1.4747689 0.14871308 2.891784 3298.5 64.5
1.5332358 0.14805117 2.8859057 3257 68.5
1.5665704 0.14814721 2.8902822 3282 70.5
1.624095 0.14812617 2.8947856 3267.3335 74
1.6640532 0.1474779 2.8909245 3258.25 199.75
1.7222286 0.14776286 2.8971241 3240 80
1.7670004 0.14703876 2.8890767 3233.3335 83
1.8220177 0.147248 2.8971276 3198.6667 86
1.8763816 0.14645028 2.8886874 3181.5 89.5
1.9241359 0.14663887 2.8957896 3178 92
1.9910891 0.14596586 2.8904452 3140 96
2.0251024 0.145623 2.8877149 3159.3335 98
2.1212773 0.14554471 2.8945403 3116 103
2.1757135 0.14510748 2.8919895 3135.6667 106
2.2750528 0.14484933 2.8961458 3116.3335 111
2.325376 0.14466459 2.8973708 3100 113.5
2.3820477 0.14409003 2.8927674 3079.5 116.5
2.4212556 0.14375944 2.8906748 3100.5 118.5
2.4566271 0.14389947 2.8959408 3074 120
2.5197983 0.14356759 2.8958464 3067.5 123
2.5722558 0.14320689 2.8943787 3050 125.5
2.6049562 0.14303894 2.8943923 3043 127
2.7292843 0.14246504 2.8955002 2998.5 132.5
2.7662408 0.14243053 2.8980505 3018 134
2.8696165 0.1417018 2.894866 2972.5 138.5
2.9195988 0.14153093 2.8962884 2935 140.5
2.9593458 0.1414962 2.8990703 2946 142
3.0205927 0.14108546 2.8975263 2918 144.5
3.068727 0.14065434 2.8945451 2934.5 146.5
3.2281432 0.13983642 2.8946261 2864.5 152.5
3.2715635 0.13973223 2.896584 2831 154
3.4161675 0.13911651 2.8987176 2849 159
3.4729249 0.13871163 2.8968909 2807 161
3.5029192 0.13856162 2.8969696 2826 162
3.6266375 0.13796854 2.8977132 2817 166
3.6740913 0.13772264 2.8976977 2784 167.5
3.9246979 0.13648409 2.8985963 2743 175
4.12113 0.13542834 2.8979144 2715 180.5
4.1785641 0.13519004 2.8988638 2698 182
4.2180586 0.13504845 2.8998804 2673 183
4.4884276 0.13325566 2.8933976 2476 190
4.5098281 0.13150546 2.8666325 2334 191.5
0.58914655 0.15347774 2.8949366 3437 0
0.62076944 0.15322302 2.8934433 3440 2.5
0.66349828 0.1523293 2.8824553 3442.6667 6
0.72863281 0.15223204 2.8863559 3418.3335 11
0.7726506 0.15219024 2.8893824 3418 14.333334
0.83207512 0.15148109 2.8828142 3369 19
0.87423342 0.15185292 2.8924356 3427.6667 22
0.91486418 0.17554763 2.8816743 3395 25.25
0.97713405 0.19764946 2.8537202 2744.5 30.5
1.1722462 0.17864256 2.8761506 2949.8 44.200001
1.2208179 0.18947114 2.8913436 3355.4001 47.200001
1.2801936 0.17461804 2.8951268 3328.25 51.25
1.3254704 0.19860324 2.8887122 3333.5 54.5
1.4295143 0.19809677 2.8891091 3319.25 61.5
1.4679188 0.19799978 2.8903987 3294 64
1.5237824 0.19805977 2.894829 3262.75 67.5
1.578573 0.197815 2.8953171 3254.6667 71
1.6311467 0.19713426 2.89012 3242 74.5
1.6656947 0.19731808 2.8947244 3252 76.5
1.7222147 0.19698094 2.8941517 3250 80
1.7708745 0.19661483 2.8926954 3209 83
1.8720427 0.19607662 2.8925006 3167.3335 89
1.9245069 0.19587389 2.8933697 3169.6667 92
1.9774172 0.19562379 2.8936663 3172 95
2.019383 0.19508865 2.8896232 3170.5 97.5
2.0684457 0.19526766 2.8951194 3138 100
2.1239603 0.19500244 2.8953948 3121 103
2.1576574 0.19442022 2.8902099 3103 105
2.2024672 0.19492994 2.8996286 3115 107
2.2758749 0.19412737 2.8942518 3103.6667 111
2.3377266 0.19406182 2.8974805 3109 114
2.3776367 0.19381371 2.8969486 3094.3335 116
2.4285274 0.19352621 2.8966379 3075 118.5
2.462359 0.19361092 2.8999357 3064 120
2.5253119 0.19324175 2.8993788 3054.5 123
2.6082566 0.19248641 2.8952284 3038 127
2.6944909 0.19178115 2.8919303 3006 131
2.7313244 0.19181618 2.894794 3005.5 132.5
2.8855722 0.19111301 2.8959885 2946 139
2.9377546 0.19110766 2.8993471 2980 141
3.0321584 0.1901634 2.8935487 2943 145
3.0843048 0.18994646 2.8942165 2909 147
3.2472878 0.189302 2.8967307 2892 153
3.2775142 0.18932945 2.8990641 2882 154
3.4475627 0.18833932 2.8976502 2847 160
3.4782722 0.18825236 2.8985617 2825 161
3.6951561 0.18716073 2.8989336 2786 168
3.8922815 0.18601897 2.8973713 2740 174
4.1818433 0.18460147 2.8983753 2680 182
4.3793726 0.18370359 2.8999379 2670 187
4.4167809 0.18334512 2.8978398 2654 188
4.4795012 0.16814339 2.8763547 2626.3335 364.66669
4.534266 0.18129468 2.8795023 2525.5 191.5
0.58947873 0.22360983 2.89217 3440.5 0
0.61767006 0.22368392 2.8950381 3435.8335 2.1666667
0.67451632 0.21967781 2.8900752 3432.6667 216.5
0.72147745 0.2198354 2.8914342 3432.7144 10.285715
0.77573329 0.21736805 2.8912566 3431.3638 238.27274
0.82586235 0.21926755 2.890888 3401.2859 18.285715
0.87318081 0.21944658 2.8920376 3417.7778 222
0.91845757 0.22376651 2.8789704 3267.2859 279.14288
0.95995897 0.24163437 2.8822618 3347 28.5
1.0010235 0.23956533 2.8624001 2651 32
1.1315039 0.21371661 2.8648775 2746 602
1.1759791 0.23263414 2.866251 2784.25 183.75
1.2204953 0.24139199 2.8940921 3385 47
1.2684194 0.24059063 2.8881721 3336.25 50.5
1.314357 0.24087441 2.8937514 3353.5 53.5
1.3824651 0.23462112 2.8937852 3322.75 189.75
1.4256334 0.24029812 2.8937464 3316.3335 61
1.4628042 0.23242134 2.8927953 3303.6667 235.66667
1.5170629 0.23981678 2.8936584 3305 67
1.5735009 0.2394111 2.8924432 3245.6667 70.666672
1.6113836 0.23941375 2.8945682 3264 73
1.6886222 0.23851155 2.8891923 3251 78
1.7149227 0.23327652 2.8891735 3251.75 201.25
1.7750776 0.23876363 2.8966756 3232.3335 83
1.8232092 0.23816717 2.8929586 3230.3335 86
1.8679433 0.23827088 2.8965449 3197.5 88.5
1.9327428 0.23727673 2.8894963 3201 92.5
1.9658928 0.23177281 2.8957069 3181 246.33334
2.021677 0.23726289 2.8942719 3169 97.333336
2.079381 0.23698927 2.8945394 3159.5 100.5
2.1048412 0.23656951 2.891458 3113 102
2.1738167 0.23666582 2.8963068 3120.5 105.5
2.2190547 0.23611486 2.8929172 3137.3335 108
2.3197792 0.235965 2.8968899 3075 113
2.3768227 0.23528294 2.8927512 3088.6667 116
2.4216778 0.23551978 2.897768 3085 118
2.4921682 0.23487523 2.8947749 3073.5 121.5
2.5233512 0.23464388 2.894026 3093 123
2.5709472 0.23489581 2.8993564 3057 125
2.6305826 0.23393813 2.8924122 3043 128
2.6529582 0.23383817 2.8925815 3014 129
2.7937043 0.23346928 2.8964267 3000 135
2.8278215 0.23316681 2.8950796 2963 136.5
2.9768939 0.23267877 2.8981113 2926.5 142.5
3.0140281 0.23243275 2.8975351 2919 144
3.1936946 0.2312137 2.8944397 2872 151
3.2193565 0.23095815 2.8931265 2887 152
3.5723665 0.22960757 2.8982203 2801 164
3.777328 0.22838467 2.8964844 2756 170.5
3.8315971 0.22841559 2.8998194 2773 172
3.88129 0.22807358 2.8989115 2754.5 173.5
4.0018086 0.22734411 2.8977795 2744 177
4.0760436 0.22710523 2.8993335 2714 179
4.5381479 0.22595701 2.8785682 2559.3335 278.33334
0.63630098 0.28629428 2.8966706 3439 640
0.6742174 0.2861279 2.892801 3443.6667 637
0.74021751 0.28695923 2.8980284 3436 632
0.76479644 0.28643972 2.8911264 3429.6667 630
0.84162527 0.28608179 2.8830633 3447 624
0.86963987 0.28676015 2.8887556 3418.6667 622
0.94092339 0.28641298 2.881114 3363 616.5
0.98519212 0.28573859 2.8714719 2705 613
1.1727061 0.28707463 2.8753746 2921.5 599.5
1.2242156 0.28948957 2.898303 3360.5 596.5
1.2591588 0.28943658 2.8958075 3403 594
1.3461094 0.28972656 2.8941 3328 588
1.3609382 0.28980991 2.8941708 3378 587
1.4744122 0.29051504 2.8954291 3321.5 579.5
1.6874963 0.2917015 2.8963232 3301 566
4.5790491 0.30543864 2.8832374 2570 451.5
0.64179575 0.35939318 2.8832047 3449.5 639.5
0.68994397 0.36143804 2.8981616 3436 636
0.72147644 0.36102644 2.8933685 3420.5 633.5
0.78131163 0.36180279 2.8972502 3437.3335 629
0.81998652 0.3615424 2.8934085 3416 626
0.87383378 0.36213431 2.8960118 3401.3335 622
0.91336513 0.36203486 2.8934741 3410 619
0.98251104 0.36034125 2.8763716 3313.5 613.5
1.0254945 0.35882199 2.8618536 2773 610
1.1899389 0.3590633 2.8567538 2395 598
1.2182057 0.36135444 2.8746228 3088 596.5
1.2900966 0.3638044 2.8919291 3402 592
1.3075576 0.36470661 2.8986919 3382 591
1.4109466 0.36506146 2.8971782 3379 584
1.5104332 0.36564231 2.8977163 3288.5 577.5
1.6367218 0.36635908 2.8982282 3309.5 569.5
1.8443061 0.3676056 2.8996389 3261 557
1.8614769 0.36770397 2.8997164 3254 556
1.9462056 0.36771789 2.8961685 3199 551
4.6072297 0.37939692 2.8784227 2607 451
0.63775063 0.43690142 2.8853681 3408 640
0.65861857 0.43814147 2.8930473 3376 638.5
0.72457266 0.43905604 2.8969233 3425.5 633.5
0.77660167 0.43897069 2.894505 3410 629.5
0.81517684 0.43850639 2.8899901 3428 626.5
0.88422859 0.44017971 2.8989067 3387.5 621.5
0.92328548 0.43963379 2.8938208 3420.75 618.5
0.98459864 0.44003147 2.8943527 3413.3335 614
1.0240611 0.43945727 2.8890605 3356.3335 611
1.0595949 0.43403378 2.8509932 2755.5 607.5
1.1546651 0.4365207 2.8645122 1270 601
1.2437541 0.43840384 2.8741448 2502 595
1.2724031 0.43843603 2.8733509 3130.3335 593
1.3988631 0.4419682 2.8928547 3354 585
1.4154978 0.44255695 2.8962626 3343 584
1.6334448 0.44368014 2.8961825 3295.3335 570
1.7404603 0.44450757 2.8980157 3289 563.5
1.7664613 0.44490948 2.8998244 3259 562
2.0077276 0.44583055 2.897548 3230 548
2.2404177 0.44683284 2.8961256 3157.5 535.5
4.6409044 0.45616695 2.8746276 2573 450.5
0.64101219 0.51585048 2.8900204 3431 640
0.67282534 0.51730394 2.897377 3418.6667 637.66669
0.73326302 0.51700038 2.8938351 3425 633
0.78753984 0.51835239 2.8999403 3432 629
0.82528067 0.51697135 2.8909183 3408.6667 626
0.8806693 0.51844072 2.8976607 3388.5 622
0.91983986 0.5177753 2.8926859 3411 619
0.97644442 0.51926607 2.8995152 3411.5 615
1.0167055 0.51887447 2.8960731 3406.3335 612
1.0806828 0.5140183 2.8664024 3064 606.66669
1.285898 0.5136705 2.858279 2703 592
1.3155715 0.51700914 2.8764753 3264.5 590.5
1.3920221 0.52118391 2.8980525 3357 586
1.4131496 0.52069747 2.8946404 3337 584.5
1.4981798 0.52142674 2.8962667 3294 579
1.5299253 0.52179527 2.8974242 3302 577
1.7313385 0.52295327 2.8980215 3271.5 564.5
1.8928648 0.52387351 2.8984525 3265 555
2.1286521 0.52536756 2.8999429 3174 542
4.6974344 0.53336799 2.8688731 2544 449.5
0.64373022 0.59522456 2.8894722 3436 640
0.6633935 0.59539801 2.8898177 3389 638.5
0.72778386 0.59657836 2.8939645 3424.6667 633.66669
0.7771883 0.59750974 2.8972735 3402.3335 630
0.82935047 0.59672505 2.8920565 3414 626
0.86216915 0.59626091 2.8889203 3393.5 623.5
0.9238047 0.59710145 2.8914649 3382.3335 619
0.95949912 0.5983175 2.8965306 3395.5 616.5
1.0217893 0.59871566 2.896879 3353.6667 612
1.1081796 0.59641886 2.8833265 3296 605.5
1.1511382 0.59297746 2.8652608 2731 602
1.3298079 0.59291291 2.8603158 2718.5 589.5
1.366794 0.59989971 2.8937767 3273 588
1.4607366 0.60157382 2.8995907 3330 582
1.5387381 0.60204208 2.8998773 3291 577
1.56761 0.6011045 2.894511 3317.3335 575
1.6717609 0.60250568 2.898716 3301.3335 568.66669
1.8849488 0.60355335 2.8983557 3275 556
1.9023205 0.60361922 2.8982303 3231 555
2.0264635 0.6040504 2.8971391 3197 548
2.0645435 0.60469133 2.8993104 3176 546
2.2937169 0.60586482 2.8991559 3139 534
4.7288246 0.61326969 2.8725669 2505.5 449.5
0.64771664 0.67713642 2.893244 3418 640
0.66097802 0.67733341 2.8937919 3418 639
0.72125185 0.6784876 2.8973997 3382.75 634.5
0.77473944 0.678886 2.8978982 3376.5 630.5
0.81956124 0.67708749 2.8891084 3391.3335 627
0.88852906 0.67858976 2.8940203 3389 622
0.90982652 0.67938256 2.8969574 3374 620.5
0.99212855 0.67949581 2.8955669 3344 614.5
1.019789 0.6794889 2.8949056 3387.5 612.5
1.0896739 0.67959607 2.8937721 3321 607.5
1.119809 0.68088681 2.8986573 3389 605.5
1.1600049 0.67488676 2.8718309 3235 602
1.3778503 0.67500412 2.867362 2776.6667 587
1.415663 0.67906332 2.8840272 3216 585
1.5301532 0.68257749 2.8965871 3319.6667 578
1.5938288 0.68298107 2.8968759 3280 574
