# .PCD v0.7 - Point Cloud Data file format
VERSION 0.7
FIELDS x y z intensities index
SIZE 4 4 4 4 4
TYPE F F F F F
COUNT 1 1 1 1 1
WIDTH 1157
HEIGHT 1
VIEWPOINT 0 0 0 1 0 0 0
POINTS 1157
DATA ascii
3.6412337 0.64740652 2.5479627 2787 466
3.6340132 0.65174079 2.5657835 2802 467
3.6379445 0.65811455 2.5916753 2806 468
3.6321027 0.66274601 2.6106777 2806 469
3.6341374 0.66885269 2.6355221 2764 470
3.6415832 0.67601371 2.6645465 2803 471
3.6448715 0.68245506 2.6907277 2782 472
3.6416702 0.68771416 2.7122309 2797 473
3.63047 0.69146985 2.7277799 2756 474
3.6348908 0.69824737 2.7553067 2773 475
3.6250556 0.7023015 2.7720423 2747 476
3.6315007 0.70956558 2.8015084 2775 477
3.6470649 0.71870315 2.838413 2771 478
3.6445687 0.72432339 2.8613727 2739 479
3.646559 0.73088443 2.8880701 2778 480
3.6399264 0.73574132 2.9080081 2753 481
3.6347132 0.74091148 2.9291923 2804 482
3.6202257 0.74418783 2.9428587 2794 483
3.5897288 0.74411339 2.9432144 2869 484
3.5600533 0.74414897 2.9440014 2873 485
3.5342071 0.74493814 2.9477766 2893 486
3.4963753 0.7431103 2.9411449 2873 487
3.4691448 0.74348366 2.9432552 2845 488
3.4322705 0.74170047 2.936785 2891 489
3.4051709 0.74197835 2.9385035 2903 490
3.388473 0.74451125 2.9491875 2946 491
3.3496451 0.74207693 2.9401057 2931 492
3.3212323 0.74189472 2.9399776 2941 493
3.2841156 0.73967105 2.9317172 2910 494
3.2631433 0.74106067 2.937834 2931 495
3.2371044 0.74124533 2.9391496 2919 496
3.2053409 0.74004102 2.9349282 2929 497
3.1851733 0.74149358 2.9412844 2968 498
3.1592836 0.74155748 2.9421048 2959 499
3.1270325 0.74004436 2.936635 2972 500
3.1012747 0.74002182 2.9371002 2941 501
3.0734513 0.73944277 2.9353418 3002 502
3.0506244 0.74003035 2.93823 3031 503
3.0264277 0.74023688 2.939595 2998 504
3.0029726 0.74058115 2.9415052 2947 505
2.9746988 0.73966491 2.9383821 2997 506
2.9458182 0.73852819 2.9343741 2990 507
2.9232168 0.73893362 2.9365149 2997 508
2.8972287 0.73841983 2.9349828 2996 509
2.8713078 0.73786592 2.9332857 3034 510
2.8420663 0.73637921 2.9278586 2998 511
2.8264229 0.73843044 2.9365571 2991 512
2.8026941 0.73830342 2.9365523 3009 513
2.7716663 0.73615426 2.9284642 3037 514
2.7540646 0.7375803 2.9346566 3021 515
2.7324872 0.7378915 2.9363916 3010 516
2.7116036 0.73835415 2.9387286 3063 517
2.6881282 0.73805386 2.9380124 3014 518
2.6640575 0.73753458 2.9364164 3064 519
2.6394019 0.73679453 2.9339333 3044 520
2.6141722 0.7358318 2.9305551 3059 521
2.5896637 0.73501647 2.9277623 3032 522
2.5735302 0.73658943 2.9345217 3080 523
2.5535722 0.73701894 2.9367037 3098 524
2.5336418 0.73742056 2.9387715 3046 525
2.5105972 0.73685193 2.9369521 3068 526
2.4763634 0.73284495 2.9213614 3069 527
2.4547503 0.73257649 2.9207346 3080 528
2.4393706 0.73418063 2.9276049 3057 529
2.4215147 0.73500198 2.9313388 3096 530
2.3993907 0.73445851 2.9296019 3092 531
2.3791499 0.7344594 2.9300435 3121 532
2.3492782 0.73134619 2.9180009 3087 533
2.3369863 0.73379576 2.9282503 3131 534
2.3180733 0.73409808 2.9298913 3118 535
2.298594 0.73418003 2.9306464 3143 536
2.2767885 0.73345393 2.9281585 3150 537
2.2579818 0.73367572 2.9294691 3126 538
2.2397885 0.73406845 2.931463 3124 539
2.2163999 0.73266357 2.9262431 3123 540
2.1942518 0.73161924 2.9224656 3114 541
2.1756144 0.73173195 2.9233279 3149 542
2.1621313 0.7336086 2.931268 3136 543
2.1446574 0.73407483 2.9335461 3160 544
2.1204596 0.73211932 2.9260993 3150 545
2.0941343 0.72932559 2.9152825 3175 546
2.0790389 0.73051226 2.9204452 3167 547
2.0595267 0.73006809 2.9190567 3172 548
2.0477285 0.73242724 2.9289267 3197 549
2.0315287 0.73315322 2.932236 3177 550
2.0120959 0.73263955 2.9305625 3212 551
1.9927149 0.73209924 2.9287794 3194 552
1.9701903 0.73030639 2.9219596 3221 553
1.9498793 0.72930014 2.9182978 3165 554
1.9343647 0.73011398 2.9219499 3199 555
1.9141581 0.7290557 2.9180739 3099 556
1.9007539 0.73065299 2.9248736 2992 557
1.8981197 0.73658174 2.9490936 2940 558
1.881011 0.73670816 2.9499788 2887 559
1.8583556 0.73452491 2.9415705 2826 560
1.840336 0.7341851 2.9405754 2842 561
1.8253531 0.73507553 2.9445281 2769 562
1.8118539 0.7365768 2.9509387 2615 563
1.7978383 0.73785335 2.9564443 2723 564
1.7867322 0.74037701 2.9669702 2750 565
1.7649179 0.73824972 2.9587717 2718 566
1.74417 0.73651415 2.9521468 2773 567
1.7263706 0.7360211 2.9505219 2808 568
1.7095622 0.73592961 2.9505126 2788 569
1.6970016 0.73773265 2.9581327 2848 570
1.683009 0.7388829 2.9631231 2774 571
1.6620899 0.73681068 2.9551299 2820 572
1.6403589 0.73428065 2.9452884 2922 573
1.6250892 0.73472553 2.9474318 2857 574
1.6071345 0.73386127 2.9442978 2907 575
1.5932443 0.73491389 2.9488881 2871 576
1.5775762 0.73508692 2.9499321 2835 577
1.5610523 0.73480809 2.9491527 2843 578
1.5371941 0.73082113 2.9334195 2836 579
1.5251037 0.73266721 2.9412048 2872 580
1.509991 0.73297703 2.9427941 2854 581
1.4995295 0.73566896 2.9539917 2886 582
1.4718684 0.72938967 2.928998 3060 583
1.4523199 0.72722912 2.920615 3249 584
1.4328728 0.72504187 2.9121211 3294 585
1.4192088 0.7259056 2.9159367 3283 586
1.4035269 0.72565317 2.9152472 3314 587
1.3890698 0.72604358 2.9171507 3304 588
1.3750141 0.72663832 2.9198785 3359 589
1.3590095 0.72611022 2.9180722 3324 590
1.3434311 0.72578424 2.9170804 3289 591
1.326359 0.72455084 2.9124227 3292 592
1.3082193 0.72262806 2.9049785 3318 593
1.291291 0.72135007 2.900136 3281 594
1.2818207 0.72451609 2.9132442 3292 595
1.2704275 0.72655696 2.9218082 3324 596
1.2546424 0.7258994 2.9194696 3339 597
1.2406874 0.72634435 2.9215848 3300 598
1.2246155 0.72542548 2.9181874 3325 599
1.2047546 0.72201151 2.9047027 3338 600
1.1902132 0.72195107 2.9047709 3323 601
1.1814897 0.72571099 2.9202833 3397 602
1.1665828 0.72539657 2.9193242 3358 603
1.1530364 0.72597027 2.9219553 3388 604
1.1355422 0.72380871 2.9135239 3349 605
1.121065 0.72366798 2.9132633 3375 606
1.1018033 0.72010052 2.8991404 3333 607
1.0918609 0.72310889 2.9116163 3363 608
1.07964 0.72451365 2.9176059 3339 609
1.0646122 0.72385204 2.9152341 3344 610
1.0508397 0.72408688 2.9164889 3370 611
1.0310802 0.71972966 2.899158 3340 612
1.0188831 0.72107399 2.9049006 3338 613
1.0037384 0.72011185 2.9013069 3318 614
0.99237686 0.7221179 2.9097283 3358 615
0.9781267 0.72181356 2.9087961 3361 616
0.96501726 0.72241408 2.9115272 3393 617
0.94942826 0.72092605 2.9057994 3356 618
0.93607068 0.72126555 2.9074719 3376 619
0.92085046 0.71997333 2.9025342 3372 620
0.90700078 0.71981961 2.9022071 3321 621
0.89548969 0.72173417 2.910259 3338 622
0.88265365 0.72247893 2.9135721 3363 623
0.86830676 0.72181821 2.9111893 3416 624
0.85203516 0.71928316 2.9012096 3380 625
0.83779502 0.71858811 2.8986847 3355 626
0.82382858 0.71810973 2.8970368 3408 627
0.81105304 0.71878034 2.9000461 3383 628
0.79940498 0.72060329 2.9077275 3371 629
0.7879253 0.72264844 2.916311 3379 630
0.77286708 0.72094554 2.9096963 3376 631
0.75658876 0.71782237 2.8973196 3352 632
0.7419126 0.71631724 2.8915026 3419 633
0.72999072 0.71783954 2.8979647 3380 634
0.71802288 0.71935004 2.9043794 3379 635
0.70799267 0.72319418 2.9202635 3346 636
0.69414419 0.72257012 2.9180198 3336 637
0.67748082 0.71840709 2.901413 3393 638
0.66301847 0.71680969 2.8952153 3334 639
0.65115947 0.71848941 2.9023175 3361 640
0.31345245 -0.2338379 -1.1192564 3722 0
0.31818432 -0.23300624 -1.1154962 3696 1
0.32550666 -0.23525593 -1.1261618 3751 2
0.33167517 -0.23605804 -1.1300519 3726 3
0.33549997 -0.23418458 -1.1214137 3788 4
0.33962694 -0.23271959 -1.1146867 3731 5
0.34523287 -0.23289143 -1.1156254 3735 6
0.35300875 -0.23530957 -1.1270872 3754 7
0.35828611 -0.23505907 -1.1260493 3730 8
0.36294478 -0.23419082 -1.1221169 3708 9
0.36694625 -0.2327068 -1.1152982 3703 10
0.37067842 -0.23101667 -1.1075122 3748 11
0.37565073 -0.2305468 -1.1054443 3719 12
0.38393527 -0.23312418 -1.1176609 3750 13
0.39075199 -0.23426808 -1.1231599 3765 14
0.39624149 -0.23418607 -1.1229125 3753 15
0.40173408 -0.23409885 -1.1226408 3716 16
0.40484259 -0.23198126 -1.1128473 3742 17
0.41175628 -0.23309954 -1.1182293 3705 18
0.41402724 -0.23037119 -1.1055684 3705 19
0.42147028 -0.23188132 -1.1127898 3715 20
0.42821658 -0.23277761 -1.117133 3725 21
0.43604678 -0.23447108 -1.1252186 3734 22
0.44105056 -0.23394363 -1.1228831 3688 23
0.44121122 -0.22979866 -1.1035675 3747 24
0.44610998 -0.22926754 -1.1012123 3726 25
0.45486692 -0.23153496 -1.1119957 3734 26
0.46091801 -0.23179133 -1.1133393 3748 27
0.47012269 -0.23423731 -1.1249659 3727 28
0.47509974 -0.23368029 -1.122492 3788 29
0.47712779 -0.23112842 -1.1106476 3780 30
0.48381776 -0.23175859 -1.1137491 3756 31
0.48692185 -0.2299993 -1.1056254 3728 32
0.49424252 -0.23101401 -1.1105348 3726 33
0.50440425 -0.23380069 -1.1237729 3719 34
0.50683719 -0.23163354 -1.1137316 3710 35
0.51332599 -0.23203161 -1.1157464 3726 36
0.51822799 -0.2314377 -1.1130986 3731 37
0.52376717 -0.23123294 -1.1122802 3758 38
0.52699196 -0.22964863 -1.1049751 3721 39
0.53685522 -0.23198316 -1.1160984 3727 40
0.54411435 -0.23273857 -1.1197977 3738 41
0.55244344 -0.2340712 -1.1262136 3751 42
0.55528444 -0.23227328 -1.1179034 3717 43
0.55981559 -0.23144858 -1.1141707 3764 44
0.56183499 -0.22926041 -1.1040214 3712 45
0.57059985 -0.23075886 -1.1112208 3663 46
0.58125448 -0.2332136 -1.122924 3655 47
0.58724499 -0.23314075 -1.1227316 3689 48
0.59547174 -0.23421904 -1.1279595 3731 49
0.59661824 -0.23162882 -1.1159147 3686 50
0.6003238 -0.23038697 -1.1102176 3722 51
0.60437143 -0.22933516 -1.1054145 3701 52
0.61497587 -0.23153494 -1.1159281 3702 53
0.62215817 -0.2320001 -1.1182725 3670 54
0.62818384 -0.23188479 -1.1178831 3633 55
0.63301647 -0.23119238 -1.1147745 3607 56
0.63702375 -0.23011623 -1.1098571 3642 57
0.6418125 -0.22941671 -1.1067142 3625 58
0.65193486 -0.23117155 -1.1151421 3685 59
0.66006416 -0.23196864 -1.1190569 3661 60
0.66781896 -0.23256709 -1.1220367 3645 61
0.66841006 -0.22996172 -1.1099077 3660 62
0.66975868 -0.22773561 -1.099565 3677 63
0.68224341 -0.23037606 -1.1121787 3604 64
0.69006187 -0.23094453 -1.1150204 3622 65
0.69703776 -0.23113073 -1.1160595 3608 66
0.70580679 -0.2320521 -1.1205695 3627 67
0.71283853 -0.23222037 -1.1215264 3658 68
0.71763498 -0.23145571 -1.1180803 3643 69
0.71922761 -0.22939554 -1.1085169 3607 70
0.72395802 -0.22862622 -1.1050473 3610 71
0.73607183 -0.23079132 -1.1154363 3588 72
0.74735671 -0.23257202 -1.1240132 3577 73
0.75731862 -0.23378812 -1.1299261 3592 74
0.76260287 -0.23316748 -1.1271632 3586 75
0.76118171 -0.22999634 -1.1123477 3554 76
0.76879698 -0.23027952 -1.1138545 3551 77
0.77498078 -0.2300106 -1.112753 3549 78
0.78312534 -0.23045695 -1.1150335 3570 79
0.79475611 -0.23215286 -1.1232238 3595 80
0.80448395 -0.23311374 -1.1279413 3576 81
0.80224514 -0.22976443 -1.1122754 3559 82
0.80896401 -0.2296388 -1.1118548 3574 83
0.81823438 -0.23039594 -1.1156114 3549 84
0.82601482 -0.23060785 -1.1167903 3506 85
0.83381915 -0.23081017 -1.1179249 3533 86
0.84320605 -0.23153268 -1.121523 3512 87
0.85211527 -0.23206639 -1.1242294 3576 88
0.85368305 -0.23012987 -1.1152419 3530 89
0.85996199 -0.22977161 -1.1137264 3550 90
0.86624146 -0.22940664 -1.1121794 3520 91
0.87521219 -0.22990538 -1.1147244 3525 92
0.88855463 -0.2317809 -1.1237938 3522 93
0.89435518 -0.23121341 -1.1212912 3483 94
0.89685315 -0.22960483 -1.113855 3453 95
0.90316927 -0.22920093 -1.1121277 3478 96
0.9105978 -0.22913323 -1.1119945 3455 97
0.92252046 -0.23042434 -1.1183052 3481 98
0.93338716 -0.23135713 -1.1229198 3451 99
0.94317573 -0.23193471 -1.1258523 3492 100
0.94158894 -0.22911178 -1.1126558 3502 101
0.95196331 -0.22984226 -1.1163152 3457 102
0.95949602 -0.22971691 -1.115916 3490 103
0.96471488 -0.22891158 -1.1122906 3440 104
0.97927886 -0.2307763 -1.1213397 3442 105
0.98805344 -0.23095243 -1.1223761 3485 106
0.99211639 -0.22978868 -1.1170517 3429 107
0.99555284 -0.22845699 -1.1109291 3396 108
1.0055422 -0.22893824 -1.1134176 3473 109
1.0113518 -0.22825517 -1.1103766 3400 110
1.0244248 -0.22953182 -1.1166481 3423 111
1.0326939 -0.22948316 -1.1166244 3435 112
1.040367 -0.2292614 -1.1157792 3441 113
1.0517489 -0.23000269 -1.1195139 3438 114
1.0520232 -0.22782099 -1.1093518 3407 115
1.0634446 -0.22854008 -1.1129839 3361 116
1.0655152 -0.22683816 -1.1051022 3364 117
1.0750952 -0.22705403 -1.1063436 3399 118
1.0916728 -0.22900724 -1.1158546 3422 119
1.1026214 -0.22950761 -1.1184558 3404 120
1.1104105 -0.2292029 -1.1172268 3430 121
1.115633 -0.22825941 -1.1129576 3358 122
1.1234242 -0.22793807 -1.1116512 3353 123
1.1312225 -0.22760718 -1.1103004 3353 124
1.1449099 -0.22866608 -1.1155721 3345 125
1.1566929 -0.22923972 -1.1185352 3380 126
1.1658814 -0.22917932 -1.1184794 3376 127
1.1797328 -0.23018213 -1.1234937 3368 128
1.1803157 -0.22810405 -1.1138221 3354 129
1.1868619 -0.22740141 -1.1107079 3338 130
1.2028244 -0.22881594 -1.1176931 3353 131
1.2148112 -0.22929892 -1.1202385 3315 132
1.2241231 -0.22916262 -1.119832 3293 133
1.2334521 -0.22901399 -1.1193684 3281 134
1.2373104 -0.22765945 -1.1131496 3284 135
1.2528496 -0.22882803 -1.118978 3305 136
1.2546166 -0.22701468 -1.1105695 3293 137
1.2695429 -0.22800077 -1.1155323 3276 138
1.2866306 -0.22940369 -1.1224909 3279 139
1.3080121 -0.23165524 -1.1335104 3251 140
1.2999142 -0.22777031 -1.1152041 3289 141
1.3086642 -0.22737649 -1.1135833 3223 142
1.3195549 -0.22740321 -1.1139754 3232 143
1.3390394 -0.22913398 -1.1225209 3245 144
1.3500186 -0.22912195 -1.1227345 3191 145
1.3610226 -0.22909452 -1.122877 3210 146
1.3648206 -0.227639 -1.1161861 3241 147
1.3722131 -0.22688444 -1.1128508 3286 148
1.3847032 -0.22710045 -1.1141642 3216 149
1.3928363 -0.22646287 -1.1113924 3205 150
1.4119942 -0.22789311 -1.1185292 3232 151
1.42755 -0.22860333 -1.1222216 3206 152
1.4342719 -0.22764379 -1.1179142 3192 153
1.420897 -0.22299248 -1.0959063 3146 154
1.3894293 -0.21511315 -1.0584081 3140 155
1.3816416 -0.21161972 -1.0419341 3025 156
1.3895342 -0.21096727 -1.0390869 3004 157
1.3989364 -0.21057214 -1.0374762 3130 158
1.391667 -0.20723939 -1.0217639 3132 159
1.4025481 -0.20709872 -1.0213755 3166 160
1.4119221 -0.20667934 -1.0196511 3195 161
1.4366392 -0.20886332 -1.0304376 3274 162
1.509186 -0.21907151 -1.0797993 3231 163
1.561345 -0.22565569 -1.1117688 3113 164
1.5742873 -0.22558613 -1.1117625 3126 165
1.5919234 -0.22626503 -1.11536 3097 166
1.5986918 -0.22513528 -1.1102605 3109 167
1.5694132 -0.21818039 -1.077125 3205 168
1.4141152 -0.19116728 -0.94740391 3536 169
1.3838749 -0.18444984 -0.91535139 3372 170
1.3874013 -0.18313673 -0.90931779 3229 171
1.3853403 -0.1809566 -0.89910567 3133 172
1.3975518 -0.1809947 -0.89958316 2916 173
1.4105908 -0.18113624 -0.90056306 2748 174
1.4445113 -0.1844113 -0.91666114 2739 175
1.4713591 -0.18654233 -0.92725319 2527 176
1.4628159 -0.18335636 -0.91219366 2587 177
1.4638798 -0.18161918 -0.90412295 2665 178
1.4852021 -0.18284152 -0.91034383 2574 179
1.4919401 -0.18191268 -0.90618002 2511 180
1.5092911 -0.18249352 -0.90931356 2246 181
1.5111208 -0.18084203 -0.90166092 2534 182
1.5227758 -0.18057431 -0.90069938 2638 183
1.536098 -0.18051802 -0.90076417 2597 184
1.553583 -0.18100964 -0.903485 2496 185
1.5835633 -0.183167 -0.91427678 2210 186
1.5887055 -0.18190761 -0.90853304 2430 187
1.5871488 -0.17975171 -0.89844632 2637 188
1.5972461 -0.17915158 -0.89589715 2682 189
1.6190977 -0.18007456 -0.9007358 2667 190
1.6384956 -0.18063386 -0.90381908 2675 191
1.644446 -0.17942882 -0.89834857 3201 192
1.6639172 -0.17993672 -0.90119416 3171 193
1.663076 -0.17785172 -0.89145541 3175 194
1.7064241 -0.18127993 -0.90849876 3324 195
1.7798141 -0.18831088 -0.9430722 3471 196
1.9579049 -0.20793751 -1.0389251 3163 197
2.0991397 -0.22268191 -1.1111169 2915 198
2.1197996 -0.22268285 -1.1116288 2883 199
2.1405013 -0.22265051 -1.1119865 2874 200
2.1586509 -0.22228137 -1.1107117 2875 201
2.1776938 -0.22198395 -1.1097932 2896 202
2.1941614 -0.22135766 -1.1072786 2880 203
2.2210953 -0.22189049 -1.1104236 2857 204
2.2498426 -0.2225742 -1.1143163 2849 205
2.2707875 -0.22233568 -1.1137191 2866 206
2.2873816 -0.221582 -1.1106137 2825 207
2.3039887 -0.22080258 -1.1073889 2769 208
2.3267779 -0.22066003 -1.1072841 2790 209
2.3513741 -0.22066797 -1.1079252 2755 210
2.3857574 -0.22165853 -1.1133866 2783 211
2.4166818 -0.2222216 -1.1167706 2752 212
2.4352257 -0.22145316 -1.1136444 2766 213
2.4493279 -0.2202027 -1.1081624 2724 214
2.4723594 -0.21982843 -1.1069837 2643 215
2.4972155 -0.21959431 -1.106503 2518 216
1.8338633 -0.1517749 -0.77410722 3846 217
1.7161467 -0.13840148 -0.70888311 4319 218
1.6907017 -0.1341489 -0.68843704 3790 219
1.678651 -0.13123025 -0.67453736 3592 220
1.665602 -0.12825248 -0.66033769 3664 221
1.6724044 -0.1271476 -0.65535498 3257 222
1.7373406 -0.13134828 -0.67652899 2732 223
1.815239 -0.13658266 -0.70283943 3024 224
1.8569138 -0.13842145 -0.71243352 3122 225
1.8566633 -0.13648257 -0.70339042 2892 226
1.8792585 -0.13653933 -0.70420986 3073 227
1.8908842 -0.13561171 -0.70017183 2860 228
1.8583858 -0.13092311 -0.67752028 2371 229
1.8855788 -0.13131104 -0.67999631 2365 230
1.9331236 -0.13332982 -0.69057351 2664 231
1.9373546 -0.13171923 -0.6831705 2371 232
1.9471098 -0.13055147 -0.67796725 2664 233
1.9596357 -0.12959002 -0.67379367 2695 234
1.9684422 -0.12831724 -0.66807759 2746 235
1.9753714 -0.12688741 -0.66158336 2250 236
3.2335255 -0.22090177 -1.1306815 1916 237
3.2172968 -0.21639867 -1.1092941 2230 238
3.2318087 -0.21422108 -1.0995008 2291 239
3.2537882 -0.2125701 -1.0923456 2205 240
3.2832711 -0.21142496 -1.0877322 2254 241
3.3597739 -0.21357065 -1.0996122 2131 242
3.4176104 -0.21426128 -1.1042517 2132 243
3.504781 -0.21686719 -1.1185387 2203 244
2.3313363 -0.13361672 -0.70169115 4221 245
2.2930696 -0.12877975 -0.6782065 3505 246
2.269793 -0.12501603 -0.66009223 3240 247
2.2663183 -0.12259161 -0.64870679 3296 248
2.299834 -0.12254402 -0.64930815 3691 249
2.3733525 -0.12495022 -0.66232896 4897 250
3.6274257 -0.20025498 -1.0441222 2838 251
3.5731366 -0.19340959 -1.0108829 2953 252
3.5577874 -0.18901385 -0.99001753 2925 253
3.5662336 -0.18605871 -0.97645122 2965 254
3.568877 -0.18276015 -0.96114165 2974 255
3.5781634 -0.17984307 -0.94777334 2964 256
3.5806735 -0.17653781 -0.93242937 3009 257
3.6206129 -0.17529032 -0.92759579 3049 258
3.6759777 -0.17480363 -0.92668718 2854 259
1.9751781 -0.081312157 -0.44915447 4853 260
1.9716166 -0.079292953 -0.43965557 4041 261
1.9805664 -0.077922352 -0.43348709 3690 262
2.0127115 -0.07769724 -0.43322736 3544 263
2.0962141 -0.079928957 -0.4456802 3780 264
2.1333268 -0.079775095 -0.4458746 3867 265
2.1821246 -0.080102868 -0.44860083 3882 266
2.2222395 -0.07994023 -0.44882804 3916 267
2.2682302 -0.079969093 -0.45009217 3891 268
2.3240073 -0.080345154 -0.45321488 3860 269
2.3428173 -0.079022303 -0.44751114 4191 270
2.4211273 -0.080178335 -0.45482272 4887 271
3.4408982 -0.12001198 -0.66553205 3537 272
3.4362519 -0.11663163 -0.64966226 3529 273
3.4383762 -0.1135324 -0.63526911 3574 274
3.4609997 -0.11122147 -0.62505358 3396 275
3.5355408 -0.11081553 -0.62499231 3245 276
3.6062193 -0.11013245 -0.62354445 3083 277
3.620003 -0.10730027 -0.61068237 3062 278
3.6258767 -0.1041742 -0.59625614 3022 279
3.6385727 -0.10127178 -0.58303994 3000 280
3.6403911 -0.097995348 -0.56781328 2988 281
3.6470654 -0.094874755 -0.55343229 3011 282
3.6556499 -0.091805488 -0.5393374 2982 283
3.6335962 -0.087810732 -0.52017635 3025 284
3.6321692 -0.084458426 -0.50451636 3008 285
3.643512 -0.081470527 -0.49086851 3027 286
3.6518342 -0.078384258 -0.47668797 3043 287
3.6957064 -0.076214299 -0.4676514 3025 288
2.3429728 -0.038836617 -0.26021132 5443 289
2.2700729 -0.034986965 -0.24047782 9778 290
2.2763214 -0.033118989 -0.23192471 13514 291
2.2676606 -0.030908437 -0.22140872 14467 292
2.2758141 -0.029076545 -0.2130706 14702 293
2.2670581 -0.026885135 -0.2026415 13858 294
2.2771215 -0.025080364 -0.19447671 9768 295
2.3100071 -0.023684395 -0.18877786 3867 296
2.3269758 -0.021947514 -0.1810991 3681 297
2.3319817 -0.019980313 -0.17205302 3604 298
2.3518751 -0.018241879 -0.16443886 3330 299
2.3787105 -0.016572176 -0.15731555 3173 300
2.4453597 -0.015412678 -0.15354817 2837 301
2.5030501 -0.014014563 -0.14844854 2703 302
2.5816672 -0.012766432 -0.14456198 2567 303
2.6892056 -0.011700418 -0.14223458 2413 304
2.8256893 -0.010736967 -0.14109614 2370 305
2.980165 -0.0096932286 -0.14002541 2440 306
3.0388792 -0.0075538489 -0.13149594 2818 307
3.0526514 -0.0049677612 -0.11978056 2973 308
3.0593855 -0.0023109587 -0.10756272 2806 309
3.0550809 0.00042020672 -0.094727159 2536 310
3.0387318 0.0032002931 -0.081367753 2334 311
3.0373058 0.0058910679 -0.068791151 1689 312
3.0867856 0.0084263282 -0.05818969 546 313
3.1292291 0.011065937 -0.046929054 308 314
3.6364193 0.013247496 -0.049217988 1349 315
3.6338406 0.016477425 -0.0341001 2777 316
3.6281946 0.019699834 -0.018941926 3096 317
3.6314795 0.022925578 -0.003987567 3203 318
3.6326981 0.026151683 0.011019236 3194 319
3.6428492 0.029410295 0.025958154 3191 320
3.6409338 0.032634877 0.041034818 3203 321
3.6399512 0.035860762 0.056094654 3209 322
3.6329017 0.039047424 0.071120687 3164 323
3.6377847 0.04230592 0.08618845 3233 324
3.6326013 0.045493059 0.10117086 3213 325
3.6333501 0.048724018 0.11621182 3235 326
3.6390305 0.052005373 0.13136655 3229 327
3.641644 0.055264801 0.1464944 3228 328
3.6431894 0.058517329 0.16161633 3188 329
3.6406703 0.061722428 0.17661703 3207 330
3.6430802 0.064990476 0.19179004 3182 331
3.6344328 0.068104662 0.2065175 3128 332
3.6466961 0.071524903 0.22215791 3162 333
3.6548922 0.074902944 0.23770149 3139 334
3.6490402 0.078056328 0.252543 3148 335
3.6451194 0.081235543 0.26745746 3136 336
3.6341486 0.084275298 0.2818951 3162 337
3.6291013 0.087414816 0.2966522 3179 338
3.6289756 0.09064965 0.31173271 3142 339
3.6417408 0.094167009 0.32781345 3145 340
3.6484499 0.097572736 0.34352258 3151 341
3.6471174 0.10080335 0.35861301 3147 342
3.6457174 0.10403236 0.3736977 3121 343
3.6352928 0.10703167 0.38793337 3155 344
3.6307778 0.11017041 0.40267378 3126 345
3.6331592 0.11349201 0.41809714 3183 346
3.5778217 0.11519136 0.42737684 3241 347
3.5115426 0.11647218 0.43497461 3299 348
3.4909382 0.11900758 0.44729802 3329 349
3.4960918 0.12230695 0.46254969 3348 350
3.5805218 0.12815209 0.48771989 3212 351
3.6370332 0.13323997 0.51004636 3114 352
3.6418927 0.13669053 0.52600986 3075 353
3.6496468 0.14025466 0.54243165 3075 354
3.6454477 0.14341089 0.55724579 3061 355
3.6293178 0.14612663 0.57029986 3086 356
3.6309261 0.14948258 0.58590233 3080 357
3.6403623 0.1531473 0.60275167 3059 358
3.6467545 0.15671431 0.61922038 3071 359
3.6372888 0.15965796 0.63317299 3054 360
3.6504297 0.16352254 0.65086293 3030 361
3.6467414 0.16670582 0.66579062 3075 362
3.6360996 0.16958694 0.67948079 3051 363
3.6352344 0.17288481 0.69487327 3021 364
3.6451032 0.17667051 0.7122758 2991 365
3.6519392 0.18034087 0.72921532 3063 366
3.6488855 0.1835652 0.74431878 2992 367
3.646744 0.18683335 0.7596041 3028 368
3.6464911 0.19019578 0.77528244 3009 369
3.6422541 0.19336526 0.79015929 3043 370
3.6330664 0.19628136 0.80397671 3011 371
3.6452961 0.20029517 0.82238454 2979 372
3.6486526 0.2038711 0.83896935 2994 373
3.6451089 0.20708974 0.85405833 2979 374
3.6307938 0.2097196 0.86666757 2976 375
3.6407366 0.21367836 0.884875 3019 376
3.6369882 0.21688864 0.89993 3009 377
3.6360831 0.22026266 0.91567838 2989 378
3.6457629 0.22426215 0.93408203 3011 379
3.6359878 0.22713013 0.94768965 2973 380
3.5352826 0.22448529 0.93783563 3009 381
3.4917083 0.22516355 0.94206715 3020 382
3.4886715 0.22829627 0.95674324 3103 383
3.5202482 0.23362723 0.98081499 3009 384
3.6344187 0.24435088 1.0279933 2897 385
3.6473293 0.24868362 1.0478709 2967 386
3.6514912 0.25246963 1.0654151 2976 387
3.652688 0.25607303 1.082181 2948 388
3.6432731 0.25896195 1.0958774 2939 389
3.6366711 0.26203665 1.1103705 2958 390
3.6405091 0.26584271 1.1280161 2988 391
3.6413963 0.26945537 1.1448328 2950 392
3.6450562 0.2732805 1.1625717 2985 393
3.6343646 0.27606899 1.1758313 2972 394
3.6388116 0.27997315 1.1939192 2983 395
3.6441119 0.28396106 1.2123765 2993 396
3.6351159 0.28687677 1.2261873 2941 397
3.6364605 0.29058638 1.2434447 2968 398
3.639606 0.29445106 1.2613806 2997 399
3.6417158 0.29825088 1.2790395 2943 400
3.6512613 0.30266571 1.2993824 2988 401
3.6343913 0.30495521 1.310468 2934 402
3.6371844 0.30884707 1.3285391 2943 403
3.6286473 0.31180805 1.3425498 2951 404
3.6387477 0.31634304 1.3634391 2949 405
3.6496613 0.32098126 1.3847896 2946 406
3.646477 0.32443023 1.4009433 2902 407
3.6478658 0.32828727 1.4188867 2927 408
3.6343071 0.33083007 1.4310715 2899 409
3.6327555 0.33443832 1.4479276 2955 410
3.6329706 0.33821753 1.4655371 2918 411
3.6414065 0.34276858 1.4865421 2924 412
3.6368172 0.34613663 1.5023532 2906 413
3.6349137 0.3497622 1.5192984 2952 414
3.6365998 0.3537403 1.5377988 2941 415
3.6308544 0.35701925 1.5532229 2911 416
3.6286983 0.36065057 1.5702013 2925 417
3.6346753 0.36509472 1.5907686 2876 418
3.6460035 0.37010115 1.6138251 2944 419
3.6480973 0.37421611 1.6329532 2909 420
3.6373799 0.37704438 1.6463989 2899 421
3.6247983 0.37967241 1.658957 2863 422
3.631156 0.38426265 1.6801957 2929 423
3.626565 0.38772982 1.6964688 2908 424
3.6380999 0.39292043 1.7203788 2934 425
3.6405046 0.39717132 1.7401328 2912 426
3.6374218 0.40084788 1.7573448 2888 427
3.6270969 0.4037388 1.7710729 2843 428
3.6211793 0.40711308 1.7869456 2886 429
3.6258729 0.41168219 1.8081267 2881 430
3.630444 0.41626632 1.8293809 2873 431
3.6357789 0.42096689 1.851159 2903 432
3.6339102 0.42486519 1.8693746 2905 433
3.6398878 0.42969504 1.8917396 2873 434
3.6351676 0.43329546 1.9086369 2874 435
3.6338778 0.43731329 1.9273955 2897 436
3.6254771 0.44049171 1.9424163 2845 437
3.635366 0.4458943 1.9673547 2893 438
3.6381226 0.45046523 1.9885918 2894 439
3.6390173 0.45483261 2.0089259 2918 440
3.6415322 0.45942622 2.0302749 2856 441
3.6335382 0.46271861 2.0458169 2889 442
3.6263361 0.46611425 2.0618207 2877 443
3.6311128 0.4710584 2.0847478 2850 444
3.6263046 0.47478929 2.1022553 2841 445
3.6282599 0.47941959 2.1237891 2873 446
3.6369247 0.48496777 2.149436 2852 447
3.6369064 0.48939851 2.1700878 2864 448
3.6367705 0.49383718 2.1907797 2817 449
3.6331272 0.49782112 2.2094381 2854 450
3.6293843 0.50180662 2.2281063 2853 451
3.6339695 0.50696492 2.2520363 2842 452
3.6367276 0.51190406 2.2749896 2846 453
3.6368327 0.51650041 2.2964103 2839 454
3.6343071 0.52074724 2.3162668 2818 455
3.6333375 0.52523839 2.3372235 2861 456
3.6264315 0.52888983 2.3544126 2801 457
3.6293809 0.5339976 2.3781471 2838 458
3.6387925 0.54009849 2.406352 2798 459
3.6422544 0.54536325 2.4308057 2826 460
3.6340704 0.54890865 2.4475315 2803 461
3.6249862 0.55232376 2.4636724 2821 462
3.6329613 0.55836421 2.4916306 2796 463
3.6358724 0.56367159 2.5162966 2795 464
3.6353862 0.56848609 2.5387487 2763 465
3.6412337 0.5743295 2.565841 2776 466
3.6428771 0.57955146 2.5901399 2794 467
3.6371415 0.58362484 2.6092668 2781 468
3.6337042 0.58808678 2.6301479 2796 469
3.6309457 0.59268266 2.6516371 2758 470
3.6336298 0.59820151 2.677294 2770 471
3.6337731 0.60333931 2.7012377 2723 472
3.6353502 0.60875261 2.7264299 2711 473
3.6375566 0.61431205 2.7522881 2764 474
3.6286135 0.61800951 2.7697415 2706 475
3.6297472 0.62345237 2.7950826 2768 476
3.6307216 0.62890756 2.8204851 2756 477
3.637747 0.6354636 2.8508699 2743 478
3.6422477 0.64163244 2.8795121 2770 479
3.6380785 0.64630747 2.9014046 2759 480
3.636086 0.65140039 2.9251914 2822 481
3.6262939 0.65511179 2.9427304 2801 482
3.5904865 0.65407193 2.9387634 2867 483
3.5608594 0.65410072 2.939625 2909 484
3.5343192 0.65465105 2.942842 2880 485
3.5093248 0.65544808 2.9471707 2865 486
3.4798505 0.65535772 2.9474735 2900 487
3.4422078 0.65365326 2.9404535 2886 488
3.4196 0.65476453 2.9461884 2915 489
3.3754737 0.65166247 2.9328139 2933 490
3.3522372 0.6525507 2.9375246 2960 491
3.3260751 0.65282583 2.9394495 2949 492
3.3006916 0.65321153 2.9418705 2910 493
3.2665803 0.65179974 2.9361281 2925 494
3.2340374 0.65063316 2.9314899 2966 495
3.2073939 0.65060502 2.932013 2925 496
3.1808057 0.65054023 2.9323642 2950 497
3.1585851 0.65133584 2.9366183 2977 498
3.1342387 0.65165222 2.9386911 2969 499
3.1085074 0.65163451 2.9392405 2952 500
3.0807009 0.65112758 2.9375606 2965 501
3.0515547 0.65027785 2.9343159 2942 502
3.0224938 0.64938706 2.9308777 2992 503
3.0005221 0.64998841 2.9342201 2996 504
2.9750917 0.64979178 2.9339285 3020 505
2.9559636 0.65095162 2.9398041 2985 506
2.9313126 0.65084702 2.9399219 3050 507
2.8957133 0.64821678 2.9285371 2976 508
2.8712211 0.64803636 2.9282978 3005 509
2.8447404 0.64735222 2.9257591 3004 510
2.8251159 0.64820778 2.9302289 3014 511
2.8021297 0.64824831 2.9309824 2994 512
2.7879195 0.65032321 2.9410024 3045 513
2.7609727 0.64935499 2.9371514 3052 514
2.7314515 0.64770973 2.930208 3020 515
2.7093234 0.64778936 2.9311225 3050 516
2.6865788 0.64767921 2.9311678 3037 517
2.669781 0.64899546 2.9377153 3061 518
2.6464546 0.64866918 2.9367676 3047 519
2.6238346 0.64847523 2.9364192 3070 520
2.5928769 0.64612645 2.9262319 3047 521
2.5736141 0.64668691 2.9293172 3079 522
2.5537331 0.64705926 2.9315412 3097 523
2.5332439 0.64724201 2.9328961 3071 524
2.5165808 0.64839375 2.9386737 3048 525
2.4917421 0.64736456 2.9344866 3075 526
2.4682372 0.64663583 2.9316673 3108 527
2.4379649 0.6440345 2.9202862 3098 528
2.4152586 0.64340615 2.9179153 3097 529
2.3944626 0.64325398 2.9177167 3101 530
2.3804379 0.64493555 2.9258988 3091 531
2.3675995 0.64694226 2.9355676 3125 532
2.3498826 0.6475758 2.9389553 3119 533
2.323765 0.64579892 2.9313152 3127 534
2.2977593 0.64398676 2.9235075 3135 535
2.278399 0.64402854 2.9241776 3148 536
2.2590747 0.64404696 2.9247382 3130 537
2.2444825 0.64542425 2.9315159 3174 538
2.2211201 0.64418674 2.9263217 3164 539
2.2053831 0.64517844 2.9313307 3145 540
2.1763871 0.64214331 2.9178963 3141 541
2.1595786 0.64273953 2.9210877 3139 542
2.1444883 0.64384282 2.9266009 3155 543
2.1276915 0.64440256 2.9296224 3141 544
2.1030397 0.64247453 2.9212413 3159 545
2.086318 0.64298958 2.9240525 3224 546
2.0662811 0.64242178 2.9218984 3200 547
2.0523629 0.64378542 2.928596 3196 548
2.0318537 0.64299548 2.9254177 3178 549
2.0141287 0.64307404 2.9262195 3180 550
1.9953532 0.64277351 2.9252799 3234 551
1.9793048 0.64334935 2.9283581 3234 552
1.9600686 0.64282638 2.9263928 3235 553
1.9408859 0.64228016 2.9243181 3189 554
1.9201812 0.64116746 2.9196405 3137 555
1.897467 0.63930255 2.9115062 3081 556
1.8929858 0.64378065 2.9324882 2955 557
1.8852663 0.64716619 2.9484577 2902 558
1.8687618 0.64743841 2.9501319 2832 559
1.8477166 0.64604163 2.9441385 2878 560
1.8272617 0.64480257 2.9388657 2806 561
1.811379 0.64519691 2.9410937 2733 562
1.7945185 0.64520454 2.9415436 2743 563
1.7762123 0.64463788 2.9393518 2815 564
1.7618594 0.64553446 2.9438834 2773 565
1.7416915 0.64418435 2.9380858 2781 566
1.7244874 0.64392823 2.9373145 2787 567
1.7092264 0.64440006 2.9398885 2814 568
1.6911391 0.64373213 2.9372196 2884 569
1.6759173 0.64416927 2.939631 2852 570
1.6658159 0.64665937 2.9514854 2814 571
1.6510304 0.64725745 2.9546361 2852 572
1.6307634 0.64557356 2.9472852 2912 573
1.6133099 0.64500064 2.9450438 2820 574
1.599948 0.64611518 2.9505668 2840 575
1.5843393 0.64626652 2.9516554 2857 576
1.5696321 0.6467821 2.9544199 2864 577
1.5549284 0.64728272 2.9571142 2836 578
1.5350267 0.64547354 2.9491706 2847 579
1.5160828 0.64402348 2.9428773 2870 580
1.4959458 0.64197528 2.933825 2852 581
1.4818197 0.64259523 2.9370618 2886 582
1.4589196 0.63915443 2.9215868 3165 583
1.439494 0.63722885 2.9130886 3231 584
1.4259069 0.63798785 2.9169602 3290 585
1.4074414 0.63640833 2.9100518 3320 586
1.3946877 0.6375249 2.9155691 3310 587
1.3759429 0.63571268 2.907583 3302 588
1.3624132 0.63641089 2.9111695 3301 589
1.3496553 0.63748622 2.9164948 3336 590
1.3337878 0.63698596 2.9145529 3334 591
1.3179613 0.63646847 2.9125295 3292 592
1.3021766 0.63593394 2.9104259 3314 593
1.2860602 0.63518602 2.9073358 3336 594
1.2707334 0.63481408 2.9059787 3306 595
1.2579998 0.63580567 2.910913 3339 596
1.2434372 0.63579834 2.9112368 3307 597
1.2288936 0.63577622 2.9114907 3371 598
1.21013 0.63336295 2.9007034 3344 599
1.1984687 0.63489413 2.9081268 3303 600
1.184346 0.63502496 2.9090834 3317 601
1.1712588 0.63573849 2.9127305 3341 602
1.1584967 0.63663888 2.9172404 3322 603
1.1450489 0.63712841 2.9198527 3358 604
1.1266674 0.63460845 2.9085584 3333 605
1.1123016 0.63446784 2.9082561 3339 606
1.0969967 0.6337117 2.9051075 3378 607
1.0864837 0.63594854 2.9157915 3384 608
1.071836 0.635566 2.9143684 3328 609
1.0584519 0.63597304 2.9165943 3373 610
1.0423317 0.6345548 2.9103799 3366 611
1.0265847 0.63332081 2.9050152 3386 612
1.013268 0.63368511 2.9070401 3366 613
1.0014075 0.63504744 2.9136813 3373 614
0.98749477 0.63498282 2.9137218 3380 615
0.97303271 0.63449919 2.9118226 3373 616
0.9555375 0.63176954 2.8995297 3427 617
0.94118953 0.6312542 2.8974802 3385 618
0.93066204 0.63357091 2.9085367 3366 619
0.91792202 0.63425112 2.9120202 3394 620
0.90438062 0.6343084 2.9126196 3391 621
0.89007592 0.63374054 2.9103243 3362 622
0.87783557 0.63479203 2.9155257 3348 623
0.86082596 0.63194889 2.9026918 3372 624
0.8456617 0.63051921 2.8964007 3342 625
0.83321786 0.63132679 2.9004705 3401 626
0.82288188 0.63396811 2.9130354 3409 627
0.80919361 0.63372886 2.9122562 3376 628
0.79529786 0.63327092 2.9104631 3374 629
0.78008795 0.63156587 2.9028895 3370 630
0.76495892 0.62984514 2.8952408 3353 631
0.752496 0.63057995 2.898972 3363 632
0.73937887 0.63068515 2.8997846 3407 633
0.72730124 0.63180941 2.9053214 3410 634
0.71214718 0.62982625 2.89645 3422 635
0.70065421 0.63154644 2.9047501 3425 636
0.68696404 0.6309824 2.9024575 3353 637
0.67330581 0.63040525 2.9001026 3371 638
0.66060704 0.63085014 2.902488 3396 639
0.64699185 0.63024729 2.9000127 3357 640
0.31195775 -0.19836536 -1.1167407 3748 0
0.31937701 -0.2004938 -1.128471 3786 1
0.32236242 -0.19798578 -1.1149814 3806 2
0.32684284 -0.19707844 -1.1101975 3755 3
0.33220118 -0.19705673 -1.110232 3780 4
0.33943942 -0.19880575 -1.1199036 3746 5
0.34542471 -0.19930549 -1.1227781 3700 6
0.35006699 -0.19855957 -1.1188726 3754 7
0.35427827 -0.19745663 -1.1130226 3765 8
0.35905614 -0.19688183 -1.110047 3687 9
0.3648569 -0.19718677 -1.1118619 3755 10
0.37195763 -0.19854507 -1.1194148 3786 11
0.37847775 -0.19936715 -1.1240491 3733 12
0.38304842 -0.19859834 -1.1200178 3768 13
0.38668448 -0.19712329 -1.1121373 3744 14
0.39140692 -0.19652514 -1.1090338 3758 15
0.39727929 -0.19680089 -1.1106927 3671 16
0.4046039 -0.1981227 -1.1180546 3703 17
0.4100557 -0.19803648 -1.1177425 3740 18
0.4155103 -0.19794574 -1.1174062 3716 19
0.42071614 -0.1976759 -1.1160933 3738 20
0.42412677 -0.19618148 -1.1081017 3717 21
0.43007067 -0.19642743 -1.1096015 3723 22
0.4352417 -0.19614622 -1.1082261 3773 23
0.43906531 -0.1949926 -1.1020907 3723 24
0.45019668 -0.19852 -1.1214979 3711 25
0.45431364 -0.19752978 -1.1162552 3688 26
0.45923299 -0.19705626 -1.1138319 3769 27
0.4652774 -0.19726996 -1.1151599 3765 28
0.4693158 -0.19627087 -1.109867 3771 29
0.4762477 -0.1969918 -1.1139655 3758 30
0.48381776 -0.19804952 -1.1199049 3753 31
0.48843035 -0.19738208 -1.1164232 3721 32
0.49240735 -0.19636871 -1.1110513 3727 33
0.49851397 -0.19655156 -1.1122141 3705 34
0.50181067 -0.19519065 -1.104942 3748 35
0.50759667 -0.19519396 -1.105124 3700 36
0.51693827 -0.19706596 -1.1155207 3738 37
0.52278751 -0.19705592 -1.1156323 3739 38
0.52864534 -0.19704065 -1.1157157 3684 39
0.53283775 -0.19617264 -1.1111367 3782 40
0.53801417 -0.19580993 -1.1093204 3741 41
0.54524046 -0.19645675 -1.1130261 3683 42
0.55216062 -0.19692734 -1.1157694 3761 43
0.55630374 -0.19604419 -1.1111069 3722 44
0.56467706 -0.1971752 -1.1174657 3736 45
0.57131851 -0.19745803 -1.1191849 3691 46
0.57362282 -0.19572526 -1.1098719 3697 47
0.57769066 -0.19482891 -1.1051359 3703 48
0.58321136 -0.19459762 -1.1040406 3694 49
0.59474033 -0.19702536 -1.1175072 3712 50
0.60411996 -0.19844124 -1.1254365 3717 51
0.60667336 -0.19686081 -1.116955 3710 52
0.60605937 -0.1939567 -1.1012197 3701 53
0.61432433 -0.19485767 -1.1063304 3678 54
0.61868691 -0.19410081 -1.1023577 3639 55
0.62941909 -0.19597352 -1.1127977 3632 56
0.6362164 -0.19619092 -1.1141672 3617 57
0.6422202 -0.19607386 -1.1137038 3681 58
0.64822978 -0.19595139 -1.1132114 3678 59
0.64925748 -0.19386572 -1.1019522 3682 60
0.65816802 -0.1948761 -1.1076734 3678 61
0.66671586 -0.19571365 -1.1124489 3662 62
0.67061371 -0.19475853 -1.10739 3609 63
0.6783604 -0.19525705 -1.1103079 3671 64
0.68701416 -0.19606984 -1.1149524 3655 65
0.69088751 -0.19510189 -1.1098233 3646 66
0.69871521 -0.19557764 -1.1126202 3638 67
0.70479023 -0.19540392 -1.1118523 3615 68
0.71447778 -0.19650362 -1.1180789 3634 69
0.72468662 -0.19775118 -1.1251206 3694 70
0.73451042 -0.19882718 -1.131223 3646 71
0.73375845 -0.19624066 -1.1172025 3628 72
0.73569328 -0.19461019 -1.1084327 3634 73
0.7474404 -0.19629803 -1.1179011 3617 74
0.75406659 -0.19623771 -1.1177624 3598 75
0.76405019 -0.19727105 -1.1236384 3582 76
0.77024269 -0.19703829 -1.1225542 3566 77
0.77400935 -0.19601806 -1.1171391 3609 78
0.77823001 -0.19515213 -1.1125722 3570 79
0.78439611 -0.19490595 -1.1114146 3572 80
0.79255307 -0.19527462 -1.1136413 3544 81
0.79723608 -0.19455126 -1.109859 3558 82
0.80997336 -0.19629341 -1.1196493 3567 83
0.81467527 -0.19555695 -1.1157967 3548 84
0.82294166 -0.19589143 -1.1178414 3553 85
0.82401639 -0.19407441 -1.1080375 3556 86
0.83437175 -0.19500691 -1.1133782 3557 87
0.84583461 -0.1962311 -1.120329 3567 88
0.85473722 -0.19668216 -1.1230227 3558 89
0.85890043 -0.19576141 -1.1181574 3555 90
0.86463797 -0.19529091 -1.1157736 3547 91
0.86821586 -0.19421387 -1.1100457 3539 92
0.8744666 -0.19388528 -1.1084445 3551 93
0.88235396 -0.19399938 -1.1092857 3479 94
0.89410728 -0.19514832 -1.1158375 3513 95
0.90648609 -0.19643094 -1.1231306 3515 96
0.91337991 -0.1962162 -1.1221638 3475 97
0.91635978 -0.19496083 -1.1154537 3493 98
0.92155015 -0.19429401 -1.1119919 3490 99
0.92388874 -0.19288939 -1.1044559 3487 100
0.94044721 -0.19514251 -1.1171201 3483 101
0.95713317 -0.19737276 -1.1296643 3462 102
0.95891798 -0.19580127 -1.1212094 3443 103
0.9635517 -0.19495569 -1.1167643 3477 104
0.96757704 -0.19396269 -1.1115038 3433 105
0.97098327 -0.19282366 -1.1054357 3419 106
0.98382628 -0.1939781 -1.1120481 3462 107
0.99317014 -0.1942583 -1.1138296 3492 108
1.0043439 -0.19495493 -1.1179169 3417 109
1.0155704 -0.19563764 -1.1219304 3467 110
1.0171514 -0.1940434 -1.1133466 3427 111
1.0253788 -0.19400142 -1.1133527 3414 112
1.0274932 -0.19254605 -1.1055356 3398 113
1.0468171 -0.19500978 -1.1194181 3432 114
1.0526431 -0.19437888 -1.1161689 3408 115
1.0609514 -0.19429857 -1.1159697 3436 116
1.0736628 -0.19517793 -1.1210896 3409 117
1.0719446 -0.19286953 -1.108547 3409 118
1.0758351 -0.19180483 -1.1028948 3447 119
1.0905207 -0.19306457 -1.1101294 3374 120
1.1072093 -0.19471364 -1.1195279 3376 121
1.1182073 -0.19511762 -1.1220263 3407 122
1.124718 -0.19456117 -1.1191993 3367 123
1.135774 -0.19494173 -1.1215725 3371 124
1.1377208 -0.19342981 -1.1134447 3352 125
1.1468403 -0.19338956 -1.1134855 3386 126
1.1632409 -0.1948033 -1.1216022 3379 127
1.1691185 -0.19407322 -1.1178174 3370 128
1.1743159 -0.19320597 -1.1132709 3304 129
1.193561 -0.19509621 -1.1240473 3337 130
1.1927273 -0.19303086 -1.1128453 3340 131
1.1972259 -0.19201463 -1.1074728 3296 132
1.2105318 -0.19268352 -1.1114702 3360 133
1.2245764 -0.19346434 -1.1160946 3275 134
1.2386824 -0.19422668 -1.1206207 3330 135
1.2459586 -0.19368872 -1.1179154 3299 136
1.2511553 -0.19276057 -1.1130393 3301 137
1.2542441 -0.1914473 -1.106019 3309 138
1.2691674 -0.19228345 -1.1109678 3288 139
1.2834544 -0.19297378 -1.1151092 3250 140
1.2992095 -0.19389588 -1.1205467 3225 141
1.3065407 -0.1932997 -1.1175278 3247 142
1.3152894 -0.19294439 -1.115853 3215 143
1.3204761 -0.19196133 -1.1106793 3216 144
1.3349611 -0.19257341 -1.1144029 3219 145
1.3437413 -0.19218692 -1.11256 3229 146
1.3626513 -0.1934963 -1.1201831 3260 147
1.3765696 -0.19393057 -1.1229283 3217 148
1.3839741 -0.19326074 -1.1195129 3240 149
1.3869799 -0.19186294 -1.1120327 3223 150
1.3980289 -0.19177888 -1.111891 3211 151
1.4098384 -0.1918001 -1.1123408 3208 152
1.4209355 -0.19168831 -1.1120505 3212 153
1.4387491 -0.19262184 -1.1176082 3193 154
1.4237797 -0.18838035 -1.0942273 3147 155
1.3846401 -0.18044133 -1.0501487 3107 156
1.3752363 -0.17720394 -1.0323601 3065 157
1.3906271 -0.17778857 -1.0359608 3015 158
1.3787769 -0.17422625 -1.0163442 3076 159
1.3949374 -0.17490521 -1.0204772 3161 160
1.4111582 -0.17556198 -1.0244919 3211 161
1.4174715 -0.17473063 -1.0201714 3233 162
1.4414698 -0.1764722 -1.030278 3414 163
1.5242755 -0.18665347 -1.0877306 3223 164
1.5618864 -0.19016239 -1.1077887 3151 165
1.5763675 -0.19030704 -1.1089822 3113 166
1.6002527 -0.19174804 -1.1174588 3141 167
1.6109254 -0.19130196 -1.1153471 3142 168
1.5296506 -0.17816608 -1.0419464 3337 169
1.397282 -0.15827301 -0.93052447 3523 170
1.381862 -0.15455262 -0.90995115 3317 171
1.3813704 -0.15288322 -0.90090179 3264 172
1.3895855 -0.1523819 -0.89842153 3083 173
1.4161855 -0.15428916 -0.90949857 2869 174
1.4421057 -0.1560524 -0.91977692 2713 175
1.4423982 -0.15445435 -0.91113597 2741 176
1.4426396 -0.15285954 -0.90251118 2733 177
1.4549739 -0.15280607 -0.9025715 2545 178
1.4754559 -0.15375507 -0.90828866 2499 179
1.4927548 -0.15426965 -0.91156435 2384 180
1.5011188 -0.15365368 -0.90846765 2486 181
1.5094813 -0.15302785 -0.9053176 2560 182
1.5203091 -0.15268986 -0.90379536 2585 183
1.5295002 -0.15214087 -0.90108466 2594 184
1.552756 -0.15324505 -0.90772033 2390 185
1.5619934 -0.1526622 -0.90482771 2480 186
1.5637443 -0.15119901 -0.89695805 2666 187
1.5838108 -0.15184626 -0.9010303 2711 188
1.5980828 -0.15179817 -0.90117472 2620 189
1.6157407 -0.15210882 -0.90335679 2572 190
1.6140893 -0.1502357 -0.89317191 2866 191
1.6225034 -0.14948709 -0.88935882 2954 192
1.6495304 -0.15076354 -0.89703381 3060 193
1.6724106 -0.15154085 -0.90188974 3297 194
1.6962135 -0.15237594 -0.90708458 3393 195
1.716679 -0.15281445 -0.91003829 3436 196
1.7697073 -0.15663438 -0.93221682 3495 197
2.130017 -0.19225834 -1.1352437 2851 198
2.0957215 -0.18656373 -1.1034499 2886 199
2.1267068 -0.18759274 -1.109898 2876 200
2.1517363 -0.18796729 -1.1126349 2884 201
2.1655624 -0.18718414 -1.1087884 2878 202
2.1854742 -0.18698224 -1.1082603 2859 203
2.2045488 -0.1866678 -1.1070993 2833 204
2.2306366 -0.18700051 -1.1096398 2866 205
2.2602866 -0.18762957 -1.1138853 2814 206
2.2786095 -0.18713909 -1.1117504 2826 207
2.2969546 -0.18662359 -1.1094804 2830 208
2.3197269 -0.18648976 -1.1094019 2803 209
2.3460736 -0.1866463 -1.1109962 2809 210
2.3565373 -0.18532592 -1.1041466 2782 211
2.3856196 -0.18565689 -1.1067626 2759 212
2.424552 -0.18680914 -1.1141031 2768 213
2.4395218 -0.18580256 -1.1090796 2743 214
2.4652121 -0.18570136 -1.1092603 2745 215
2.4864709 -0.18518142 -1.1070492 2722 216
2.5194194 -0.18561503 -1.1103303 2519 217
1.7530156 -0.119397 -0.7302019 3992 218
1.6870971 -0.11236322 -0.69026333 3783 219
1.6777481 -0.11006714 -0.67757106 3555 220
1.6764605 -0.10844366 -0.66874772 3445 221
1.6823786 -0.10740118 -0.66327327 3196 222
1.7082664 -0.10792033 -0.66681713 2660 223
1.7323941 -0.10825948 -0.66933697 2111 224
1.7483641 -0.10793418 -0.66802925 2047 225
1.7881163 -0.10938244 -0.67699498 1951 226
1.8160737 -0.10988092 -0.68048579 2014 227
1.8459283 -0.11047255 -0.68453449 2006 228
1.8445978 -0.10874487 -0.67514598 2176 229
1.8763698 -0.10940354 -0.67961186 2491 230
1.9165168 -0.11060271 -0.68724066 2963 231
1.9364303 -0.11031748 -0.68626165 3074 232
1.9628505 -0.11045066 -0.68773162 3007 233
1.9856074 -0.11029153 -0.68751574 3104 234
1.9842385 -0.1084753 -0.67764682 2967 235
2.0088797 -0.10839157 -0.67789245 3185 236
3.1990278 -0.18445714 -1.1233356 1791 237
3.1883447 -0.18095724 -1.1040901 2117 238
3.205615 -0.17926256 -1.0954077 2248 239
3.2584734 -0.17977534 -1.099682 2231 240
3.3011034 -0.17957035 -1.0997813 2225 241
3.341913 -0.17918709 -1.0988642 2173 242
3.389365 -0.17913799 -1.0999441 2208 243
3.4642332 -0.18063232 -1.1101551 2105 244
2.3417251 -0.11235276 -0.70877051 4057 245
2.2959073 -0.1077486 -0.68255192 3705 246
2.2811599 -0.10498369 -0.66716909 3394 247
2.2786508 -0.10292989 -0.65598202 3310 248
2.2808337 -0.10114241 -0.64636946 3486 249
2.2696536 -0.098638192 -0.63249874 2507 250
3.6912568 -0.17192836 -1.0694841 2307 251
3.6208377 -0.16514307 -1.0307629 1131 252
3.6514089 -0.16365358 -1.0235682 654 253
3.6705029 -0.1615423 -1.0126826 1884 254
3.6378429 -0.15684904 -0.98635489 2716 255
3.6357095 -0.1537021 -0.96926206 2897 256
3.6363728 -0.15070003 -0.95303267 2904 257
3.6504204 -0.14833124 -0.94061035 2888 258
1.9700257 -0.068053231 -0.45846555 2868 259
1.9607197 -0.066045254 -0.44733378 3174 260
1.9725817 -0.064993918 -0.44198 4196 261
1.9680061 -0.063212544 -0.43220881 3814 262
1.9836924 -0.062305063 -0.42774203 3733 263
2.0661938 -0.064162023 -0.44013211 3731 264
2.1246016 -0.064898416 -0.44577405 3876 265
2.1627138 -0.064727582 -0.44593021 3953 266
2.2222395 -0.065335535 -0.45090869 4031 267
2.2643399 -0.06517899 -0.45125526 4048 268
2.2967463 -0.064591974 -0.44899711 4092 269
2.3252749 -0.063812256 -0.44558603 4289 270
2.3899095 -0.064282849 -0.44996595 5109 271
2.4985662 -0.066190861 -0.46337402 5001 272
3.4479814 -0.096661299 -0.65521395 3735 273
3.4364197 -0.093509339 -0.63782656 3922 274
3.4365184 -0.090760894 -0.62295383 3760 275
3.4816341 -0.089444287 -0.61710733 3368 276
3.5659993 -0.089269988 -0.61855632 3175 277
3.6092029 -0.087724589 -0.61141723 3064 278
3.6307902 -0.085481107 -0.59988695 3045 279
3.6474237 -0.08306621 -0.58728838 3053 280
3.6344857 -0.079812787 -0.56931281 3010 281
3.6372156 -0.077004552 -0.55419111 2983 282
3.6290355 -0.073913068 -0.53722692 3004 283
3.6365552 -0.071233921 -0.52293974 2996 284
3.6450021 -0.068569265 -0.50875723 3003 285
3.6425242 -0.065638013 -0.49282199 3001 286
3.6518342 -0.062982351 -0.47871262 3055 287
3.693728 -0.061028756 -0.46932712 3064 288
2.337034 -0.029525217 -0.26034614 5482 289
2.2779961 -0.026528118 -0.24245062 7199 290
2.2822673 -0.024860958 -0.23354851 11062 291
2.2865005 -0.023188271 -0.22461538 12216 292
2.2758141 -0.021244375 -0.2137913 11955 293
2.2660656 -0.019335613 -0.20318396 9976 294
2.275135 -0.01775006 -0.19485961 5411 295
2.2960956 -0.016335325 -0.18779697 3707 296
2.328964 -0.015062978 -0.18184265 3596 297
2.338944 -0.013422883 -0.1732489 3526 298
2.3608305 -0.01192362 -0.16575503 3343 299
2.3727376 -0.010268776 -0.1571361 3160 300
2.4344049 -0.0091654453 -0.15291324 2837 301
2.4910948 -0.0079120593 -0.14773709 2696 302
2.5577478 -0.0066675772 -0.14289165 2562 303
2.6742508 -0.0057687857 -0.14133085 2435 304
2.8187079 -0.0049159871 -0.1408117 2402 305
2.9821606 -0.003975749 -0.14035796 2528 306
3.0478604 -0.0021263869 -0.13221169 2850 307
3.039675 0.0002588362 -0.11906991 2959 308
3.0414135 0.0025796036 -0.10655841 2824 309
3.0420983 0.0049065002 -0.093983859 2565 310
3.0577106 0.0071816472 -0.082112707 2323 311
3.0622828 0.0095101763 -0.069639556 1337 312
3.1077702 0.011768134 -0.058708623 291 313
3.0822568 0.014174722 -0.044959836 179 314
3.6304221 0.016371626 -0.0486142 1457 315
3.6078489 0.019152533 -0.032922849 2866 316
3.6331935 0.02195897 -0.01845216 3109 317
3.642478 0.024771603 -0.0034925002 3188 318
3.6396973 0.027563827 0.011698834 3203 319
3.6328495 0.030336414 0.026899224 3211 320
3.6299338 0.03311551 0.042023338 3219 321
3.6389515 0.035952639 0.057123143 3175 322
3.6349015 0.038725033 0.072243147 3177 323
3.6357849 0.041524895 0.087371916 3193 324
3.6485996 0.044417497 0.1026643 3179 325
3.6473475 0.04721221 0.11782575 3221 326
3.6430297 0.049977113 0.1329128 3234 327
3.6366456 0.052715033 0.14791241 3217 328
3.6391916 0.05554001 0.16312997 3210 329
3.6436682 0.058392197 0.17844005 3179 330
3.6410818 0.061164819 0.19351979 3195 331
3.6414256 0.063972972 0.20870873 3176 332
3.638706 0.066739917 0.22376154 3183 333
3.6379166 0.069532283 0.23889714 3114 334
3.6370604 0.07232365 0.25402927 3132 335
3.634141 0.075081296 0.2690374 3158 336
3.6331511 0.077868938 0.28415316 3180 337
3.6330912 0.080673352 0.2993333 3166 338
3.6469245 0.083740033 0.315539 3137 339
3.6377532 0.08638072 0.33009136 3167 340
