# .PCD v0.7 - Point Cloud Data file format
VERSION 0.7
FIELDS x y z intensities index
SIZE 4 4 4 4 4
TYPE F F F F F
COUNT 1 1 1 1 1
WIDTH 1149
HEIGHT 1
VIEWPOINT 0 0 0 1 0 0 0
POINTS 1149
DATA ascii
9.0128632 -1.9598866 -0.076853685 1255.25 272
8.9835529 -1.9128089 -0.077249311 708.66669 273
9.0081501 -1.9180353 -0.077571385 770 273
13.884468 -1.4311302 -0.055601019 121 298
17.499786 -0.9635089 -0.089433573 192 309
17.472891 -0.88731349 -0.077274017 177.33334 310
17.504349 -0.88733995 -0.088304199 170.5 310
17.492596 -0.8160826 -0.05127098 175 311
17.532055 -0.8146162 -0.072980344 186.83334 311
17.55353 -0.81329966 -0.087197073 193 311
17.576172 -0.74221289 -0.060142126 209.5 312
17.605892 -0.74206579 -0.069102824 181 312
17.584997 -0.66265917 -0.076703176 148.5 313
17.627466 -0.66760886 -0.060677797 203 313
17.595743 -0.59116179 -0.053399976 117 314
17.609734 -0.59110147 -0.056223687 183 314
17.686188 -0.59098554 -0.06963034 169 314
17.581167 -0.51329488 -0.057385504 210 315
17.657133 -0.51711488 -0.050647832 211 315
17.591248 -0.43552059 -0.062428337 220 316
17.664223 -0.43964109 -0.054363675 203 316
17.710207 -0.44132113 -0.052568026 221 316
17.746962 -0.36361519 -0.057243966 149 317
8.1858616 0.23252067 -0.060690384 256.66669 329
8.2302666 0.23328599 -0.062051374 344.00003 329
8.2628231 0.2378414 -0.055616271 449 329
14.42736 0.23047529 -0.099482469 287 326
6.0917358 0.2834596 -0.077697039 1384.5 333.6875
6.1187053 0.27415904 -0.077215038 1304.9167 333.3125
8.18678 0.25963119 -0.082912952 1006.1111 330
8.22013 0.27468342 -0.078322567 1181.439 330.29266
6.0400128 0.32819235 -0.050514985 1759 335
6.0783243 0.32681191 -0.077313073 1656.6799 335.23999
6.1086059 0.30188462 -0.058422148 1616 334
8.1931744 0.33003885 -0.086613663 1110.5715 331.85715
8.2165346 0.32306263 -0.071331941 1226.8 331.47501
8.2507591 0.3448464 -0.070772968 949 332
6.048768 0.37070453 -0.085907534 1655 337
6.0714855 0.37193421 -0.072948396 1677.6365 336.81821
6.1008496 0.39715457 -0.099376351 1552 338
14.381518 0.36678058 -0.097699575 334 328
6.0850143 0.41709599 -0.071597949 1321.2354 338.41177
6.1104603 0.43418974 -0.074222773 1083 339
6.0877404 0.46206656 -0.066632323 256.20001 340
6.1216021 0.46122962 -0.078790486 372.30771 340
6.1572189 0.46034452 -0.091624834 495 340
14.429672 1.1354014 -0.093225107 379 340
14.50111 1.142547 -0.082602717 331 340
14.55793 1.1481004 -0.074476682 360.5 340
14.367422 1.1930035 -0.096018955 336 341
14.488991 1.2039288 -0.091394193 440 341
14.50892 1.206351 -0.085472636 356 341
14.572693 1.2130837 -0.074039914 341 341
14.667358 1.2223148 -0.062590472 357 341
14.437755 1.2625381 -0.094026595 403 342
14.496524 1.2684873 -0.088164389 436 342
14.561934 1.2756628 -0.07609807 420.66669 342
14.685781 1.2879128 -0.064288162 422 342
14.461456 1.3280733 -0.094006822 366 343
14.541111 1.3369371 -0.081344418 401.5 343
14.62923 1.3461044 -0.07233984 353 343
14.8591 1.3044044 -0.052743822 305 342
14.394289 1.3842763 -0.099819161 322 344
14.519694 1.3976203 -0.090417698 367 344
14.749709 1.3591207 -0.052979153 300 343
14.583393 1.4055452 -0.073737897 398.66669 344
14.737661 1.4218248 -0.060749833 355 344
14.798374 1.4282998 -0.054240108 342 344
14.451756 1.4545568 -0.088702746 342 345
14.52637 1.4628249 -0.08240141 380 345
14.673608 1.4791347 -0.068897508 416 345
14.736284 1.486127 -0.061994191 385 345
14.75817 1.4889272 -0.054918263 407 345
14.626233 1.537635 -0.077987008 297 346
14.727663 1.549706 -0.063187145 343 346
14.761472 1.5538726 -0.05588365 350 346
14.662111 1.6063443 -0.071946345 282 347
14.774425 1.6196796 -0.060855545 354.5 347
14.665879 1.6710577 -0.073546901 319 348
14.715551 1.6774069 -0.065610066 345 348
14.859599 1.6951022 -0.050263874 367 348
14.537299 1.7193748 -0.082901739 219 349
14.689219 1.7388538 -0.066670254 351 349
14.761703 1.7480987 -0.058721043 374 349
14.786525 1.7516143 -0.050439797 494 349
14.697361 1.8044008 -0.067987904 250 350
14.763356 1.8134471 -0.055307385 397 350
14.616935 1.8580765 -0.077864043 131 351
14.807372 1.8843164 -0.051844455 337 351
14.725649 1.9381267 -0.061310172 191 352
14.844604 1.9544711 -0.052722104 315 352
14.868626 2.0232203 -0.053517941 254 353
11.463532 2.0606375 -0.097064115 199 363
11.410177 2.1018853 -0.098406665 433 364
11.522184 2.1753559 -0.086143367 400.5 365
11.42326 2.207669 -0.086659953 560 366
11.534651 2.2304745 -0.071077287 351 366
9.5443697 2.2729599 -0.061857808 470 376
9.5740185 2.2791095 -0.07941705 619.5 376
9.6138744 2.2889714 -0.073816933 569.5 376
11.376668 2.2748079 -0.094125822 760.5 367.5
11.443412 2.2633183 -0.083035968 563 367
11.511071 2.2778563 -0.066443846 421.5 367
9.5796041 2.3245032 -0.07489118 907.79999 377
11.338045 2.3435678 -0.096294574 887 369
11.425088 2.311378 -0.078423142 712 368
11.489258 2.3254795 -0.061597083 544 368
9.5367651 2.3562415 -0.098722294 851 378
9.5648966 2.3650084 -0.070220731 934.5 378
11.244572 2.3747714 -0.096887253 821 370
11.392859 2.3557487 -0.085508093 781 369
11.484866 2.3756855 -0.074368618 642 369
11.51521 2.3826642 -0.062843762 605 369
9.5481768 2.4049397 -0.065296009 723.5 379
9.57337 2.4107132 -0.077463083 804.5 379
11.119928 2.4487667 -0.098792836 988 372
11.171558 2.4096758 -0.097712837 878 371
11.319085 2.4425719 -0.087694764 761 371
11.359966 2.4001331 -0.086650781 837 370
11.447001 2.4194326 -0.075242333 768 370
11.560438 2.4442956 -0.064276308 548 370
11.626797 2.4065545 -0.052182626 285 369
11.063292 2.4863462 -0.099794969 911 373
11.200941 2.4675398 -0.087823965 842 372
11.398222 2.4605517 -0.075995594 818 371
11.481265 2.4793074 -0.064549714 693 371
11.585864 2.4503007 -0.052610517 351 370
11.165676 2.5103493 -0.088907853 853 373
11.329493 2.5482974 -0.077785246 897 373
11.367846 2.5054197 -0.076935284 740 372
11.498637 2.5351908 -0.065726846 770 372
11.638561 2.5141935 -0.053815063 589 371
11.122458 2.5510926 -0.08988966 856 374
11.303643 2.5938234 -0.078764357 819 374
11.447479 2.5757618 -0.06625282 778 373
11.603075 2.5590301 -0.054286931 760 372
11.288803 2.6414425 -0.086628236 689 375
11.441969 2.6265492 -0.067212857 869 374
11.562541 2.6024966 -0.054712795 762 373
11.444016 2.6791785 -0.068247676 693 375
11.553992 2.6531119 -0.055407863 878 374
11.571496 2.7099164 -0.056327544 712 375
10.705044 2.8472457 -0.096493877 994 382
10.947289 2.8112297 -0.096677721 605 380
10.384021 2.8572793 -0.095135808 883 384
10.928137 2.8566794 -0.09792272 709 381
11.189257 2.8747962 -0.08503978 853 380
11.268621 2.8960838 -0.071565278 712 380
10.440718 2.9216568 -0.097331375 874 385
10.886371 2.9472299 -0.085248522 737 383
10.972528 2.9199295 -0.085025534 741 382
11.106988 2.9047041 -0.08534652 805 381
11.2288 2.9375799 -0.072167665 842 381
10.173421 2.9887962 -0.097938567 1148 388
10.217092 2.9538569 -0.097130686 880 387
10.85413 2.9888453 -0.086099148 730 384
11.043584 2.9909303 -0.072251514 859 383
11.164689 2.9722917 -0.07251285 727 382
11.558983 2.9720778 -0.060091309 640 380
10.033164 3.04158 -0.098776162 994 390
10.053056 3.0002964 -0.097658142 1007 389
10.501176 3.0376914 -0.085473537 916 387
10.689237 3.0426507 -0.08656393 799 386
10.774587 3.0168955 -0.086374544 693 385
11.000557 3.0302858 -0.072795734 813 384
11.50723 3.0117764 -0.060404338 788 381
9.9863691 3.0744238 -0.099505991 1029 391
10.500272 3.086689 -0.086666025 838 388
10.842991 3.0875809 -0.073098846 799 386
10.928531 3.0611541 -0.073025323 743 385
11.523909 3.069521 -0.061333504 834 382
10.370627 3.1458426 -0.087443151 972 390
10.40724 3.1079936 -0.086707093 920 389
10.701558 3.1472027 -0.073530369 765 388
10.791018 3.1231441 -0.073523149 810 387
11.151752 3.1249492 -0.060225245 925 385
11.3541 3.1293058 -0.061331529 873 384
11.547051 3.1293161 -0.062325917 685 383
10.703032 3.1980004 -0.074526608 862 389
10.858754 3.1945412 -0.059731707 875 388
10.947456 3.1695156 -0.059823334 734 387
10.45799 3.222085 -0.089756221 848 391
10.671762 3.2389019 -0.075161487 941 390
10.844707 3.2414033 -0.060343634 777 389
10.156297 3.2729471 -0.089444056 967 394
10.27046 3.2611892 -0.089745149 1030 393
10.429519 3.2626679 -0.090601042 910 392
10.64511 3.2810781 -0.075844988 908 391
10.79126 3.2761793 -0.060576048 921 390
10.041064 3.3315158 -0.090281166 997 396
10.15615 3.3214452 -0.090628244 988 395
10.325524 3.3288047 -0.075126946 916 394
10.528469 3.3447409 -0.076482922 793 393
10.566807 3.3067997 -0.075942069 1017 392
10.807408 3.3322642 -0.061478246 791 391
10.060497 3.3864014 -0.091722324 1080 397
10.347919 3.3855817 -0.076347359 887 395
10.541337 3.3997715 -0.061093014 758 394
10.663661 3.388782 -0.061562851 826 393
10.780366 3.3749802 -0.061962668 888 392
10.056013 3.4333613 -0.092846587 1024 398
10.29607 3.4178026 -0.076707251 916 396
10.472284 3.4273453 -0.061139848 860 395
10.015444 3.4677885 -0.09347865 991 399
10.160927 3.470309 -0.077032708 898 398
10.265905 3.4570477 -0.077315599 950 397
10.008688 3.5139725 -0.094572239 1029 400
10.247602 3.5498173 -0.079026781 861 399
10.610798 3.5240669 -0.063265972 786 396
10.008303 3.5625346 -0.095756762 809 401
10.233892 3.5946758 -0.079829164 942 400
9.9888945 3.6043038 -0.096677274 1048 402
10.181412 3.6255937 -0.080160446 814 401
9.9205275 3.6766582 -0.098092742 1099 404
9.9852543 3.6518693 -0.097820669 1083 403
10.157033 3.6664076 -0.080829144 784 402
10.685491 3.6521161 -0.065520704 782 398
10.151248 3.7140169 -0.08172591 986 403
10.18737 3.777442 -0.083146445 859 404
10.584078 3.7712371 -0.066737615 637 401
10.153024 3.8146191 -0.083692998 1006 405
10.374557 3.8227248 -0.066409856 748 403.5
10.562819 3.815181 -0.067269772 705 402
10.191332 3.879585 -0.085154787 818 406
10.141693 3.9108119 -0.08550673 865 407
10.310781 3.9262273 -0.067592628 654 406
10.205437 3.9864922 -0.087308116 801 408
10.269325 3.9612458 -0.067890376 764 407
10.182366 4.0282645 -0.088002212 781 409
10.76435 4.0481381 -0.052165464 659 405
10.206945 4.1406527 -0.090316184 874 411
10.259216 4.1104574 -0.089997888 834 410
10.566284 4.1296997 -0.071880415 744 408
10.27004 4.2184062 -0.09215457 968 412
10.530763 4.2211504 -0.073032804 754 410
10.731055 4.2490468 -0.053957921 662 409
10.770888 4.2111192 -0.053792395 589 408
10.264432 4.2681117 -0.093093053 844 413
10.208413 4.3486309 -0.094371453 850 415
10.276065 4.3252883 -0.094265781 863 414
10.647307 4.3219805 -0.075105719 818 411
10.621879 4.3652248 -0.075606167 778 412
10.869964 4.3591819 -0.055750288 661 410
10.189274 4.4450431 -0.096149206 862 417
10.299329 4.4405866 -0.09662962 816 416
10.658032 4.4342971 -0.076801091 730 413
10.943349 4.4440398 -0.056957949 619 411
10.121379 4.467371 -0.096233882 840 418
10.582452 4.4563847 -0.076734178 763 414
10.862903 4.4659448 -0.05675758 778 412
10.099048 4.5097666 -0.096943907 842 419
10.380484 4.5301013 -0.076769926 714 417
10.620759 4.5269527 -0.077962048 722 415
10.93088 4.5496387 -0.057925995 702 413
10.083814 4.5553761 -0.097753063 866 420
10.386181 4.5862765 -0.07761959 867 418
10.781472 4.5968037 -0.057617236 575 415
10.821673 4.5588174 -0.057453033 750 414
10.12011 4.6248474 -0.099292167 791 421
10.323233 4.6117206 -0.077666782 658 419
10.762227 4.6437173 -0.057976685 699 416
10.066308 4.6528044 -0.099559017 894 422
10.319378 4.6637125 -0.078406133 928 420
10.566061 4.6671901 -0.057195399 651 418
10.69154 4.6679463 -0.057849329 806 417
6.7369137 4.7351999 -0.072490007 1190 464
6.7734308 4.717514 -0.072386123 664 463
6.6856256 4.7854524 -0.084719159 1094 466
6.7149663 4.7631865 -0.072857097 1388.5 465
10.238455 4.7879534 -0.079803392 763 423
10.297301 4.7615056 -0.079720415 762 422
10.686848 4.7765632 -0.058886945 681 419
6.688849 4.8321743 -0.073906846 830 467
6.7058353 4.8008113 -0.061788216 1191 466
10.239485 4.8970366 -0.081401601 655 425
10.299553 4.8713465 -0.081335977 826 424
10.579021 4.8938346 -0.059477765 790 422
10.5205 4.921937 -0.059450962 672 423
10.280896 4.9719253 -0.08270856 813 426
10.547363 5.0465431 -0.060807474 698 425
10.821187 5.3530507 -0.065214656 706 428
10.624018 5.4269753 -0.091121517 597 431
10.852166 5.4272404 -0.066099532 591 429
10.645444 5.4963841 -0.092245467 716 432
10.804336 5.4617743 -0.066190675 643 430
10.829267 5.5336108 -0.067021385 690 431
10.688839 5.6370082 -0.094522558 695 434
10.914057 5.6372261 -0.068471171 681 432
10.918541 5.6997027 -0.069105022 695 433
10.565934 5.7484784 -0.095517009 821 437
10.710795 5.7082353 -0.095675789 583 435
10.923569 5.7627964 -0.069747709 711 434
10.608926 5.8319173 -0.096956953 683 438
10.915895 5.8803549 -0.070857383 627 436
10.432754 5.9121652 -0.097221002 744 441
10.535873 5.9109707 -0.097734913 609 440
10.639178 5.9089885 -0.098238282 788 439
10.367804 5.9944401 -0.09808775 902 443
10.420699 5.9651561 -0.097932689 696 442
10.685483 5.9965053 -0.070805624 700 440
10.890384 5.9889894 -0.071787901 710 438
10.334225 6.035161 -0.0839376 951 444
10.427371 6.0299516 -0.069802649 823 443
10.513307 6.0194392 -0.070142671 670 442
11.054859 6.0180302 -0.07291925 568 437
10.209631 6.0807219 -0.098532662 1033 446
10.266135 6.0545259 -0.098441288 1020 445
10.323678 6.0895324 -0.06985081 754 445
10.673097 6.0505409 -0.071270034 618 441
10.165054 6.1138148 -0.098786205 1026 447
10.210336 6.1420493 -0.069780201 891 447
10.278161 6.1226864 -0.069940388 894 446
10.27546 6.2425761 -0.071098469 846 448
10.327152 6.3358817 -0.072276935 1009 449
10.303642 6.3830514 -0.072616912 873 450
10.339921 6.468081 -0.073635057 869 451
10.356268 6.5411716 -0.074433796 838 452
10.360403 6.6069422 -0.075098045 873 453
9.7918501 6.7300167 -0.073371701 1043 461
9.8672438 6.7194748 -0.073657118 1063 460
9.9344692 6.7027674 -0.073840164 989 459
10.418634 6.7083273 -0.076389186 835 454
9.76157 6.7716184 -0.073622368 667 462
10.15748 6.7908792 -0.075850584 853 458
10.441075 6.7872834 -0.077276662 995 455
10.279246 6.8087363 -0.076652549 869 457
10.373859 6.8074183 -0.077127159 940 456
11.014633 8.3838415 -0.095839292 378 472
11.240411 8.4804277 -0.0979468 548 471
9.8871346 13.992696 -0.076414555 1206 542
9.9532843 13.957261 -0.076582305 183 541
9.8089132 14.010555 -0.076098762 618 543
10.17447 14.009716 -0.077978134 249 539
9.7459898 14.050264 -0.075968511 647 544
9.6313839 14.146256 -0.075846873 635 546
9.6935806 14.105407 -0.075967811 622 545
9.5490437 14.156878 -0.075474508 787 547
9.3335609 14.233893 -0.07474044 375 550
9.4948969 14.209608 -0.07545308 1656 548
9.4382801 14.258787 -0.075401574 571 549
9.3118715 14.337118 -0.075132869 277 551
9.246007 14.372066 -0.074964218 177 552
11.419636 -14.974522 -0.017828546 2879 110
11.518808 -14.969575 -0.018338893 206 111
11.60732 -14.815731 -0.018775782 145 113
12.106838 -13.892509 -0.021234548 1501 125
12.118733 -13.784238 -0.021282364 5708 126
12.170182 -13.721948 -0.021539688 4611 127
12.255149 -13.697632 -0.021974433 1106 128
12.285466 -13.611715 -0.022119945 373 129
13.872294 -11.832485 -0.030074297 814 159
13.896394 -11.748976 -0.030188069 557 160
26.767944 -7.4890904 -0.021840472 129 259
11.856933 -6.9023652 -0.019077104 211 200
12.397517 -4.9486847 -0.045351673 128 234
7.7095227 -4.4203696 -0.018598303 299 201
7.6732593 -4.369638 -0.031492881 758.66669 201.66667
7.6848288 -4.3177834 -0.02782191 1133.5 203
7.7371264 -4.3036165 -0.027997784 743.5 204
7.7654371 -4.2756643 -0.027938932 267.5 205
16.534327 -3.0269492 -0.012731888 257 280
16.531626 -2.9524319 -0.013446424 388 281
16.572418 -2.8858418 -0.0073496262 267 282
16.578934 -2.8127828 -0.015154665 215 283
16.603086 -2.8169436 -0.01513911 321 283
3.9487412 -2.7045908 -0.041808758 632 181
3.9520099 -2.7080743 -0.0031864478 578 181
16.548138 -2.7341373 -0.0024738773 380 284
16.60535 -2.7433193 -0.015870504 357 284
3.9325211 -2.6689143 -0.021462077 1656.875 182
3.9390359 -2.6322348 -0.021062307 1429.5 183.66667
16.707684 -2.612062 -0.0050786035 327 286
16.747581 -2.5436621 -0.018555125 205 287
16.763397 -2.5464299 -0.0063240929 359 287
16.750607 -2.4702296 -0.0073709041 270 288
16.774582 -2.3993545 -0.014318286 287.5 289
16.812122 -2.3304286 -0.015352987 243.5 290
16.845911 -2.2609365 -0.010918218 283 291
16.850868 -2.2612374 -0.021848187 266 291
16.964684 -2.2013457 -0.033783872 101 292
16.91213 -2.1950998 -0.017518897 268 292
16.968174 -2.1274712 -0.023760259 208 293
17.019978 -2.0594833 -0.014756889 223 294
8.9768696 -2.0365195 -0.017910283 189 270
8.9752531 -1.9749823 -0.022130812 1124.3 271.5
17.068521 -1.9899641 -0.025621522 186 295
8.9734516 -1.9135541 -0.026122361 828.25 273
9.021347 -1.9239215 -0.026461869 858 273
17.252211 -1.5578933 -0.030791745 100 301
17.507843 -0.89394277 -0.04296815 144 310
17.497591 -0.81833416 -0.035341956 171 311
17.504585 -0.81819338 -0.039323136 195 311
17.599897 -0.74669212 -0.036915287 127 312
17.593992 -0.6700384 -0.038004197 152 313
17.610477 -0.669671 -0.044630513 159 313
17.605736 -0.5930692 -0.044942081 189 314
17.708675 -0.59602267 -0.048442073 189 314
17.698114 -0.52038819 -0.040726006 185 315
17.716106 -0.5204277 -0.043323852 183 315
17.665722 -0.44319522 -0.039479949 161 316
17.732964 -0.36599585 -0.048538588 174 317
17.782955 -0.3685964 -0.043379728 159 317
17.683403 -0.28774226 -0.049654674 162 318
17.750393 -0.28936371 -0.048618846 139 318
8.1983547 0.24744034 -0.027033443 786 329
8.2255068 0.24506773 -0.035808854 676.88892 329
8.2554922 0.24285507 -0.044068463 595.33337 329
6.0926538 0.2704874 -0.019223547 1123.1 332.39999
6.1204081 0.27759299 -0.021575497 1274.02 332.63998
6.1528831 0.2621893 -0.02138509 805 332
8.1918583 0.25286576 -0.0092972545 646 329
8.2242708 0.27549115 -0.021755699 1222.4902 329.7059
8.2643213 0.2565915 -0.0041308352 847.5 329
6.0783472 0.32555708 -0.025596654 1688.6429 334.55359
6.1042371 0.31278884 -0.023175254 1642.625 334
8.1953173 0.32424164 -0.0089647016 1108 331
8.2249689 0.32100135 -0.026160315 1333.8064 331
6.0453329 0.37545308 -0.043831617 1658.6667 336.66669
6.0757341 0.3768267 -0.02446278 1644.8236 336.47061
6.1006517 0.39669341 -0.0041551688 1667 337
6.0811458 0.42798224 -0.021271724 1220.3215 338.35715
6.1101007 0.43609014 -0.032602962 1074.9445 338.66666
6.1079116 0.45035037 -0.0019335481 681 339
15.082883 1.2599236 -0.03468233 290 341
14.894959 1.3081065 -0.046662938 350 342
14.941694 1.4432909 -0.04116226 317 344
15.900013 1.4000419 -0.0057790624 237 342
14.79697 1.4934105 -0.047969509 371 345
14.849973 1.5638049 -0.048930757 288 346
14.892702 1.6341093 -0.04184185 386 347
15.069124 1.6543255 -0.030590871 341 347
15.167027 1.6657513 -0.019471887 319 347
15.214735 1.6713812 -0.011904236 233 347
14.942055 1.7051015 -0.042442881 316 348
15.011596 1.7135905 -0.034258585 352 348
15.102992 1.7245357 -0.026459239 322 348
14.912626 1.7671899 -0.042594515 311 349
14.955323 1.7732108 -0.025458924 349 349
15.140009 1.7956465 -0.018100202 288 349
14.888399 1.8299758 -0.038192704 304.5 350
15.062566 1.8524106 -0.021390934 309.5 350
14.938296 1.9021271 -0.033857465 387 351
15.141628 1.9293517 -0.007881307 315 351
15.107298 1.9907877 -0.025171479 340 352
15.158845 1.9983327 -0.0069950265 337 352
14.942928 2.0344369 -0.033864867 257 353
14.960762 2.0373101 -0.024187589 417 353
14.932921 2.0989945 -0.033805273 346 354
15.243114 2.0767448 -0.0063209487 391 353
15.228963 2.1420436 -0.0053250799 326 354
14.859304 2.1537585 -0.044207897 215 355
14.985959 2.1727533 -0.034069363 343 355
15.057201 2.1835876 -0.0239648 349 355
15.166045 2.1998515 -0.014399163 373 355
15.025286 2.245219 -0.028871864 258 356
15.185835 2.2030652 -0.004240355 294 355
9.5881138 2.2852297 -0.023174783 420.25 376
15.185972 2.2699845 -0.013836399 305 356
9.5246401 2.3132281 -0.028754991 1079 377
9.5697956 2.324734 -0.017661002 1074 377
15.135413 2.3297696 -0.0021896663 409 357
9.5118408 2.3968282 -0.04114262 565 379
9.5699883 2.3683896 -0.023691554 1095.5 378
15.111777 2.3930159 -0.0067265145 301 358
9.530735 2.402492 -0.017829169 590.5 379
9.5777302 2.4145036 -0.018269058 478 379
11.776318 2.5454168 -0.023906445 421.5 371
11.670424 2.5745525 -0.042428788 720 372
11.763474 2.5961461 -0.017592475 668.66669 372
11.692228 2.6325006 -0.043107618 837 373
11.720507 2.639782 -0.017475965 834 373
11.750735 2.6466959 -0.017341647 798 373
11.696214 2.6866217 -0.043657221 848 374
11.739075 2.6972485 -0.02403239 727 374
11.681946 2.7370179 -0.030514266 357.5 375
11.70384 2.7422249 -0.03082416 365 375
11.768299 2.7045786 -0.0044560442 620 374
11.689647 3.0065532 -0.046750914 659 380
11.760522 3.079278 -0.047827031 801 381
11.864831 3.052537 -0.033169292 579 380
12.016786 3.0924344 -0.018656943 458 380
11.737315 3.1274803 -0.048178665 705 382
11.875083 3.1102705 -0.025714153 499 381
11.668578 3.1631317 -0.04817301 786 383
11.845467 3.1570704 -0.033580091 726 382
11.945892 3.1845219 -0.018280223 383 382
11.465414 3.2142918 -0.047626328 812 385
11.626726 3.2057524 -0.048374012 669 384
11.810359 3.2024333 -0.033620775 594 383
11.479145 3.2718241 -0.048259497 721 386
11.815538 3.2588155 -0.033922847 618 384
11.92536 3.2898257 -0.01816133 371 384
11.73476 3.3458951 -0.033931974 697 386
11.791586 3.3071315 -0.034035426 488 385
11.033124 3.3509314 -0.046734691 777 390
11.413317 3.4136951 -0.04930719 689 389
11.768996 3.4109032 -0.034425888 694 387
11.93464 3.4038663 -0.018194949 465 386
11.735789 3.4563236 -0.034476642 729 388
11.872855 3.4975116 -0.017864969 374 388
11.919675 3.4554245 -0.018111434 584 387
11.794304 3.5292799 -0.035134468 552 389
11.856526 3.5485106 -0.017774489 432 389
11.695621 3.5547035 -0.034750201 633 390
11.670451 3.6022422 -0.03485271 553 391
11.90785 3.6202631 -0.018029995 242 390
10.640526 3.7921355 -0.049024872 639 401
11.589855 4.2480998 -0.037592012 606 403
11.066989 4.5512438 -0.036378682 662 412
11.01841 4.6994085 -0.036852065 666 415
11.224929 4.6738224 -0.037791148 682 413
6.732439 4.7330642 -0.026504658 1252 464
6.7779188 4.721755 -0.026668139 589 463
6.6915784 4.7692566 -0.02652139 1256.5 465.5
6.7113171 4.7618299 -0.0149654 1320 465
11.034465 4.7629442 -0.037245113 637 416
6.6912661 4.8350229 -0.027030362 860.5 467
6.7155361 4.8084064 -0.038736001 1168 466
11.041939 4.8230762 -0.037577324 691 417
11.501615 4.8492217 -0.015784027 702 414
6.6853662 4.8750048 -0.02732208 359.5 468
10.927437 4.8857632 -0.037293553 703 419
10.927048 4.9996886 -0.037847996 725 421
10.989689 4.9711494 -0.038031351 625 420
10.92415 5.0557299 -0.038106788 683 422
11.206154 5.0705028 -0.014234199 596 420
10.998713 5.1486044 -0.038944591 593 423
11.2104 5.1900063 -0.014241204 610 422
10.992382 5.2038283 -0.039181702 542 424
11.052392 5.2913117 -0.039918188 666 425
10.967215 5.3086925 -0.039564215 787 426
11.300907 5.3518195 -0.014687386 644 424
11.059581 5.4131842 -0.040550482 663 427
11.058218 5.4720836 -0.040831145 618 428
11.246927 5.5062551 -0.01439005 637 427
11.014498 5.5696821 -0.041082583 579 430
11.309123 5.659153 -0.014691472 801 429
11.174159 5.8350892 -0.04320154 713 433
11.535644 5.8993492 -0.015828673 618 431
11.25272 5.9388103 -0.044112917 515 434
10.454134 6.0463724 -0.025382919 738.5 443
10.519798 6.0239744 -0.025677323 541 442
10.414736 6.0836058 -0.040502574 744 444
11.587214 6.0534091 -0.016075209 580 433
10.267025 6.1165414 -0.039902385 912 446
10.30643 6.1406989 -0.0094654029 835 446
10.381221 6.1244102 -0.040529191 759 445
10.519789 6.1460629 -0.010564021 679 444
11.271283 6.1376333 -0.045179669 569 437
10.278684 6.1841817 -0.040292833 825 447
10.452507 6.1673489 -0.010214715 709 445
10.955999 6.1504931 -0.043618035 660 440
11.191073 6.1566429 -0.044859257 556 438
11.55332 6.1637607 -0.015886845 605 435
10.365829 6.2376127 -0.0097593814 788 447
11.517535 6.2088485 -0.015696859 647 436
10.358112 6.2939091 -0.041238014 919 448
11.563061 6.2985582 -0.015920255 617 437
10.387935 6.3126559 -0.0098639419 686 448
10.384938 6.3722944 -0.041759085 905 449
10.400233 6.3822122 -0.0099186525 679 449
11.610641 6.3902411 -0.016153999 548 438
10.346864 6.4106932 -0.041750465 682 450
10.461274 6.4827819 -0.010220634 616 450
10.448102 6.5370703 -0.042889342 740 451
10.490275 6.6273174 -0.043547429 866 452
10.503282 6.6996346 -0.043967657 808 453
10.632346 6.6540251 -0.011080734 703 451
9.818944 6.7498455 -0.0068779439 811 461
9.8524208 6.7102585 -0.007055351 779 460
10.613327 6.7063284 -0.010976233 754 452
9.7738476 6.780807 -0.040605847 658 462
9.8246908 6.7534213 -0.040734045 876 461
9.9265366 6.7608895 -0.041295264 810 460
10.029045 6.7680912 -0.024912789 898.5 459
10.546023 6.7918286 -0.044638183 934 454
10.641957 6.7894778 -0.011113395 831 453
9.8221416 6.8151174 -0.0068862988 543 462
10.242809 6.8491459 -0.043355875 900 458
10.495395 6.8235674 -0.044532347 874 455
10.341562 6.8510542 -0.043874003 858 457
10.402216 6.8921089 -0.0098654125 775 457
10.478437 6.8776016 -0.027455483 879.5 456
10.590666 6.886611 -0.010837041 895 455
10.661679 6.8675494 -0.011205296 812 454
10.343879 6.9179058 -0.0095616374 697 458
7.0971498 11.315777 -0.048964765 3135 555
7.1618004 11.309793 -0.049268644 1392 554
9.9463682 13.947963 -0.0066387258 1159 541
10.021049 13.924468 -0.0070264279 260 540
9.8083429 14.010239 -0.0059198332 876 543
9.8968706 14.00714 -0.0063763345 1339 542
9.6873999 14.096812 -0.005285928 910 545
9.750514 14.057366 -0.0056160153 761 544
9.6297092 14.14427 -0.0049827853 943 546
9.5623569 14.177348 -0.0046316525 1811 547
9.4234991 14.236691 -0.0039088367 620 549
9.4976521 14.214282 -0.0042936807 1584 548
9.3640118 14.281386 -0.0035967792 680 550
9.2994499 14.318258 -0.0032595496 637 551
9.2401056 14.363277 -0.0029481917 436 552
9.1757507 14.400436 -0.0026119943 256 553
18.02669 -16.818539 0.032139059 3066 149
18.129183 -16.76746 0.031361487 307 150
14.790282 -15.169415 0.040759277 248 138
12.100956 -13.88593 0.048346639 456 125
12.131213 -13.798798 0.047765162 3880 126
12.173484 -13.72594 0.047191512 6456 127
12.227948 -13.667192 0.046623945 3383 128
12.280133 -13.605993 0.046056166 576 129
13.861679 -11.82366 0.029202074 1619 159
13.904003 -11.755766 0.028652392 719 160
13.974262 -11.711607 0.028074704 414 161
11.865554 -6.9077415 0.015475952 258 200
11.762959 -6.8475852 0.049201768 312 200
7.6763797 -4.3751407 0.024483068 603.20001 201.60001
7.6948185 -4.3240042 0.0026880677 1051 203
7.7082834 -4.3319755 0.034913909 1085 203
7.7234836 -4.2966404 0.023894992 874.33337 204
7.7599082 -4.2733011 0.023611104 372 205
16.495209 -2.9462042 0.00089558423 340 281
3.9585481 -2.7131672 0.026755607 524.33337 181
3.9355292 -2.6658728 0.029024221 1779.75 182.25
3.979712 -2.6527348 0.0093155839 1096 184
16.664543 -2.6796122 0.0091432557 141 285
3.9422026 -2.6396878 0.0354532 1564 183.5
3.9619808 -2.6409111 0.035187006 1125.5 184
16.790911 -2.40219 0.0030928133 129 289
8.9754086 -2.0373042 0.021431785 286.5 270
9.0090322 -2.0449867 0.016442975 191 270
8.9437256 -1.9893271 0.011369945 957.5 271
8.9702072 -1.9702411 0.029099718 1117.875 271.625
8.9886999 -1.9184836 0.024618829 734.40002 273
8.147912 0.22395429 0.024568697 232 328
8.1972275 0.22714429 0.040326159 314 328
8.2253447 0.22597779 0.026804384 300.30771 328
8.2720327 0.22814599 0.031844221 305.5 328
8.3068523 0.23073749 0.046488505 368 328
6.0889568 0.27838904 0.024797522 1069.5455 332.36365
6.1175194 0.28335378 0.024858259 1131.9501 332.50003
6.1558805 0.27420613 0.044135042 692 332
8.185813 0.26718518 0.020084471 1144.375 329.25
8.2208223 0.27792323 0.025656575 1282.1516 329.5
8.2598228 0.26141793 0.020664396 958 329
6.0814805 0.3338632 0.024993943 1691.4036 334.50879
6.1051106 0.32164121 0.023607243 1623.5 334
8.1935682 0.33005276 0.032657057 1120.375 331
8.2169523 0.32986626 0.021730263 1174.5652 331
6.0494385 0.37179282 0.035244204 1646 336
6.0763674 0.38421404 0.023720074 1671.9792 336.45834
6.1103201 0.37431103 0.020278653 1766 336
6.0450912 0.44622517 0.0030323458 748 339
6.0860181 0.42536038 0.027236123 1346.1072 338
6.1083307 0.42660213 0.020669101 1458 338
6.08531 0.45218286 0.036819428 630.33337 339
6.1155057 0.45329037 0.021178976 685.07697 339
15.993645 1.4089187 0.007659561 288 342
15.38811 1.7586739 0.0053887311 303 348
15.297626 2.0170536 0.0019799788 281 352
15.302556 2.0851901 0.0032362726 334 353
15.395684 2.0982282 0.013425542 280 353
15.480451 2.1782088 0.014890911 374 354
15.333269 2.2248869 0.0057058227 403 355
9.5861702 2.2859597 0.022338089 388.33334 376
9.6197071 2.2941628 0.031477295 371.5 376
15.370887 2.2984214 0.0068952171 331 356
9.5498886 2.3207192 0.015775314 963.5 377
9.5754604 2.3272653 0.033933342 877.33337 377
15.432197 2.3078907 0.018223913 423 356
15.583489 2.3308516 0.029195745 369 356
9.5429096 2.3627663 0.023767326 1097.6667 378
9.561986 2.367734 0.032596767 1027.5 378
15.418034 2.3740873 0.019871304 380 357
9.5396185 2.4056396 0.01660943 623.33337 379
9.5767612 2.4154329 0.038954455 481 379
15.247561 2.4150922 0.0097254189 392 358
15.374949 2.4356358 0.021557201 346 358
11.779902 2.5472584 0.01820684 408.66669 371
15.5201 2.5277677 0.023000365 351 359
11.730938 2.5899146 0.031135751 767 372
11.761847 2.5966582 0.02329582 790.33337 372
11.805629 2.5531774 0.042748053 314 371
15.257476 2.5523829 0.012256875 375 360
15.45864 2.5864849 0.024713622 332 360
15.75891 2.567178 0.047711082 306 359
11.731234 2.6430657 0.01980922 908 373
11.752685 2.6482282 0.04528157 971 373
15.28266 2.6247425 0.013488241 313 361
11.733718 2.6972389 0.039840788 405.5 374
15.460025 2.6556232 0.026350848 325 361
11.759045 2.7028041 0.014202992 550.5 374
15.365591 2.7076797 0.014621 313 362
15.499498 2.731638 0.027955327 305 362
15.244431 2.7540936 0.0032460978 221 363
15.27258 2.8276091 0.0041401382 221 364
15.541552 2.8086989 0.043076623 284 363
15.283676 2.8984575 0.018631816 317 365
15.480003 2.8668051 0.045055497 247 364
15.38583 2.9181402 0.032976847 372 365
15.260096 2.9625101 0.019958213 261 366
15.645792 3.0381792 0.04910164 325 366
6.6910439 4.7475185 0.0089886542 1258 465
6.7394333 4.7241783 0.023815369 961.66669 463.66669
6.7779193 4.7222843 0.008537909 651 463
6.6819878 4.7848139 0.020524681 1130 466
6.7121286 4.7629213 0.031721953 1358 465
6.6872373 4.832685 0.020606376 1024.5 467
6.669302 4.8637156 0.020757057 548 468
12.035175 5.0153422 0.0055377716 542 413
12.107028 5.1072779 0.0056198817 558 414
12.117486 5.4874811 0.032502346 530 420
11.86813 5.8137193 0.010326417 535 427
12.085625 5.8565516 0.036168341 627 426
10.45705 5.9881415 0.018454913 675 442
10.548792 6.0413671 0.045840442 474 442
11.924606 6.035357 0.011125882 599 430
11.910601 6.0932684 0.011482967 623 431
10.395945 6.1949372 0.033933327 566 446
11.820718 6.1768765 0.012357417 540 433
11.929116 6.168293 0.011756685 450 432
12.053654 6.1672983 0.039281514 505 431
10.359848 6.2343554 0.04864509 659 447
10.508331 6.2009082 0.019237496 623 445
11.810424 6.2368479 0.012705514 485 434
12.013334 6.2124052 0.039917242 467 432
10.346183 6.2873859 0.049218673 614 448
10.403419 6.2607417 0.020072415 592 447
10.698033 6.2517061 0.047067225 655 444
11.984348 6.2633438 0.040549908 414 433
10.394752 6.3171058 0.020394387 643 448
11.765216 6.3439631 0.013465441 580 436
11.816554 6.3058577 0.013013451 450 435
10.41553 6.3919625 0.020655619 573 449
11.738302 6.3952355 0.013856364 523 437
11.755742 6.4711657 0.014140083 587 438
12.015532 6.4803691 0.042448416 630 436
11.841625 6.5860448 0.014262784 419 439
10.568114 6.6136661 0.020960227 650 451
9.7425871 6.6969972 0.025623597 615 461
9.8367739 6.6997242 0.025151735 575 460
9.6977234 6.7280436 0.026007496 406 462
9.949337 6.7141566 0.02464278 766 459
10.74312 6.7894745 0.020923505 676 452
10.234525 6.8442297 0.023813348 546 458
10.498853 6.8916221 0.022684611 888 456
10.579802 6.8797321 0.022209043 769 455
10.747855 6.858017 0.021236336 621 453
10.449576 6.9240828 0.023098208 771 457
10.716156 6.9032717 0.021622313 824 454
12.396062 9.3625584 0.02506646 527 471
12.486685 9.5172663 0.025360702 455 472
12.530365 9.6373844 0.025726618 500 473
12.568506 9.7543631 0.026105629 446 474
12.647451 9.9047155 0.026438605 318 475
7.1171117 11.348515 0.0076148771 521 555
7.1660328 11.316989 0.0073588993 1558 554
22.878181 -16.204397 0.083399199 747 180
11.397338 -14.945198 0.057145689 1630 110
11.477592 -14.915696 0.056588091 3183 111
11.621419 -14.83411 0.055448566 238 113
15.489446 -12.650431 0.086727485 382 164
13.920748 -11.77005 0.086203933 1862 160
13.944468 -11.686454 0.085264511 656 161
11.878487 -6.9154477 0.082646005 280 200
7.7021751 -4.4167423 0.078405529 446 201
7.6823788 -4.361125 0.077546917 916 202
7.7196326 -4.3238468 0.073246852 956.66669 203.33334
12.395186 -4.3363633 0.063388214 191 244
7.7355833 -4.281703 0.075972602 696 204.5
7.7558341 -4.2711353 0.086026438 417 205
25.724051 -4.261023 0.099159606 171 284
3.9536445 -2.7098122 0.088698804 421 181
3.9331405 -2.6634629 0.074518599 1694.0001 182.28572
3.9430122 -2.6279664 0.080213897 997.5 184
3.9615686 -2.6407769 0.061019078 977 184
8.9317942 -2.0275528 0.081671774 466.5 270
9.0285234 -2.0499277 0.056932956 336 270
8.9694967 -1.9753367 0.074436918 1154.3 271.5
8.9765797 -1.9161514 0.072067395 726 273
8.9396524 -1.8679701 0.070022099 190 274
16.108635 -1.2455523 0.099841148 100 304
8.1819 0.22685097 0.072630636 372.83334 328
8.2266827 0.22807129 0.074919567 366.19998 328
8.2791348 0.22928041 0.076632716 352.36365 328
6.0898738 0.2875869 0.071672939 1151.9286 332.64288
6.1176777 0.28464895 0.075224362 1042.7407 332.48148
6.1566291 0.27357408 0.083032265 714 332
8.1892338 0.27121204 0.072948024 1262.8572 329.28574
8.2211123 0.27911621 0.075421244 1322.3031 329.48486
6.0824628 0.3356244 0.075329445 1798.9287 334.51788
6.1049614 0.32340747 0.074241877 1700.6 334
8.1902227 0.33078587 0.075658403 1042.6 331
8.213953 0.33151561 0.074699275 1043.85 331
8.2702551 0.33453417 0.061652001 958 331
6.0751643 0.38306665 0.076781251 1888.2438 336.36584
6.1081104 0.3632412 0.056963772 1893.5 335.5
6.0490794 0.44896781 0.09257438 1014 339
6.0839815 0.41709301 0.073019356 1571.4838 337.64514
6.1058369 0.42774341 0.074237615 1512.75 338
6.0886326 0.4526124 0.077310607 741 339
6.1116009 0.45447454 0.071226746 692.40002 339
9.5657549 2.2812529 0.081537172 291.5 376
9.6085291 2.291599 0.081719853 278 376
9.5450335 2.319943 0.071453765 937 377
9.5654259 2.3248587 0.07941287 871.66669 377
9.5367651 2.3615637 0.067061149 1090.5 378
9.5537415 2.3656249 0.090831548 1125.5 378
9.538003 2.4055111 0.080493979 627 379
9.5612583 2.4115522 0.050946549 519 379
11.742124 2.5392928 0.080274135 333 371
15.892405 2.5184944 0.058072533 321 358
11.738747 2.591574 0.09539254 800 372
11.766689 2.5846553 0.068947844 743.5 371.75
11.82126 2.5565357 0.074271053 357.5 371
15.859564 2.5837164 0.060757935 301 359
11.741714 2.6456728 0.077795334 850.25 373
15.680512 2.6240916 0.050023798 315 360
11.723166 2.6948209 0.072877638 355 374
15.726074 2.701849 0.052396454 458 361
15.891614 2.7304225 0.080033757 338 361
15.619621 2.7531409 0.054665271 433 362
15.659612 2.8302338 0.057044376 282 363
15.650071 2.8985608 0.05938486 377 364
16.069874 2.904774 0.086721741 368 363
15.957767 2.9557972 0.089526147 296 364
15.598074 3.0990379 0.051087935 333 367
15.747858 3.0581534 0.06423258 268 366
15.821464 3.0724852 0.079809666 356 366
15.591269 3.1679578 0.053093877 358 368
15.922642 3.1639047 0.082814679 288 367
15.604713 3.2411766 0.055118371 402 369
15.872443 3.2253962 0.085445672 306 368
15.758388 3.2733028 0.071393184 315 369
15.894561 3.3735769 0.09104801 351 370
6.7363024 4.6930804 0.052691419 469 463
6.6845555 4.7429619 0.097641289 1190 465
6.7260675 4.7292552 0.075086296 1079.6667 464
6.7648621 4.713233 0.085673526 422.5 463
6.6929016 4.7928758 0.076160491 1241 466
6.7137499 4.7641606 0.06453152 1227.5 465
6.6444016 4.8452587 0.099772498 374 468
6.6805224 4.8278608 0.076725446 1098 467
6.6672945 4.8623819 0.065942466 520 468
12.863403 5.4954338 0.05426186 419 415
12.767388 5.7179542 0.05790177 375 419
10.513447 5.9604759 0.072943702 442 441
10.613703 6.0789371 0.074101463 376 442
10.418152 6.1472387 0.076074496 502 445
10.458906 6.2329078 0.077075362 503 446
10.405128 6.2618833 0.077762015 613 447
10.772086 6.2954254 0.076345257 454 444
10.473315 6.4278975 0.079757154 426 449
10.43924 6.4693542 0.050465751 533 450
10.491782 6.5022388 0.080712758 607 450
9.7231264 6.6215277 0.05559938 616 460
9.8460884 6.6437383 0.086039864 593 459
9.9288311 6.6376076 0.085526861 576 458
9.823596 6.6906838 0.086819306 538 460
9.9022551 6.6821179 0.055251319 557 459
9.7819958 6.7244582 0.071902402 505.5 461
10.053098 6.7216668 0.054849349 631 458
9.7296467 6.7504749 0.088148512 478 462
10.758291 6.7992339 0.083537303 418 452
9.854064 6.8378487 0.056977231 381 462
10.284232 6.813396 0.086180203 454 457
10.398061 6.8896785 0.054666061 584 457
10.600694 6.893518 0.085682012 728 455
10.685985 6.8837147 0.069113642 630.5 454
10.789038 6.8846545 0.068589985 579.5 453
10.537186 6.9171033 0.086342618 581 456
10.565516 6.9359469 0.054242253 814 456
10.612393 6.9012513 0.05367152 755 455
12.808157 7.0561481 0.076606095 528 438
12.877527 7.1677737 0.077826396 468 439
12.916589 7.2633643 0.078976221 322 440
12.468715 9.3330374 0.067180201 426 470
12.594901 9.5141554 0.06824851 529 471
12.663457 9.6532669 0.069215208 483 472
12.700223 9.769248 0.070126228 476 473
12.734639 9.8844986 0.071042418 487 474
12.840476 10.057268 0.072136372 378 475
12.906515 10.292058 0.074023843 424 477
10.149226 13.847338 0.058707796 417 538
10.323138 13.831619 0.057734407 214 536
9.9908981 13.882263 0.059695385 559 540
10.061876 13.853642 0.059188873 336 539
10.27686 13.895412 0.058286704 268 537
9.9452162 13.946487 0.060246732 1220 541
9.7929754 13.988192 0.061236311 992 543
9.8716717 13.971227 0.060747378 933 542
9.7437277 14.047624 0.061782457 990 544
9.6722279 14.074628 0.062283706 1219 545
9.6112852 14.117042 0.062806375 1297 546
9.4822235 14.191061 0.063835517 1254 548
9.5534821 14.164184 0.063336134 1673 547
9.4147415 14.223445 0.064342536 983 549
9.3640118 14.281528 0.064889669 1199 550
9.2983694 14.316713 0.065400995 956 551
9.2401056 14.363415 0.065930955 695 552
9.1339931 14.473928 0.067021407 228 554
9.2220984 14.474199 0.066568792 349 553
21.773087 -18.957554 0.11600706 499 157
18.036167 -16.827374 0.11443771 1266 149
18.108685 -16.748323 0.11329132 3012 150
11.46547 -14.899626 0.12944837 2930 111
11.554147 -14.880861 0.12880802 1634 112
11.582797 -14.784183 0.1277153 269 113
11.628701 -14.710373 0.12675725 286 114
12.09442 -13.878252 0.11622312 389 125
12.139753 -13.808496 0.11530763 953 126
12.202528 -13.758887 0.11449923 4073 127
12.243208 -13.684304 0.11356052 4321 128
12.3068 -13.635715 0.11275787 771 129
12.371538 -13.588314 0.11196094 188 130
15.435643 -12.718403 0.14905491 477 163
15.449286 -12.617122 0.14750564 320 164
13.992596 -11.726851 0.14201143 517 161
11.861872 -6.8363466 0.14876418 243 201
7.6975436 -4.369308 0.13236612 653 202
7.7122746 -4.3781056 0.11008867 836 202
7.699162 -4.3265839 0.10889742 1121 203
7.7156672 -4.3356857 0.13127865 1147 203
7.7249012 -4.2753363 0.11848342 763.25 204.5
3.9426119 -2.7017319 0.10899623 429 181
3.9344604 -2.6707742 0.12274195 1483.875 182
3.9415157 -2.6425853 0.12647778 1551.3334 183.33334
3.9582696 -2.6378331 0.11773948 992 184
8.9356136 -2.0271287 0.13626888 506.66669 270
8.9705353 -2.0359335 0.11198965 528.5 270
8.9447012 -1.9884171 0.14296119 1149 271
8.9660931 -1.976701 0.11761946 1241.7144 271.42859
8.9303474 -1.944705 0.1444049 1155.5 272
8.9717216 -1.9207876 0.1240133 741.16669 272.83334
9.0115719 -1.9228759 0.11953794 722 273
8.1843987 0.22243477 0.10890447 143 328
8.2234116 0.23976013 0.13555375 536.55554 328.66666
8.2871923 0.2250762 0.10996741 220.66667 328
6.0894375 0.2909022 0.12078917 1087.1429 333
6.1218443 0.28670618 0.12268288 909.40002 332.79999
6.1583776 0.27113837 0.10448811 514 332
8.1871214 0.26271966 0.11657923 1044.3 329.20001
8.2259665 0.2757946 0.12437853 1184.9828 329.58621
8.2543259 0.25425887 0.13144547 787.5 329
6.086009 0.33353275 0.12225062 1716.4773 334.63638
6.1101918 0.3186914 0.13316269 1521.8889 334.11111
8.190465 0.32466111 0.12319899 1062.4286 331
8.2159796 0.32547876 0.12577237 1066.24 331
6.0494385 0.36775017 0.12002137 1975 336
6.0778227 0.38127482 0.1252432 1922.6604 336.49057
8.1968145 0.35855657 0.13533102 397 332
8.2212887 0.35807866 0.14234765 400.5 332
8.2684917 0.35994652 0.14383276 355.75 332
6.0799608 0.43069679 0.12669657 1449.3948 338.36844
6.1125655 0.44808805 0.13853624 1252.6667 339
6.093534 0.46595106 0.11406622 539.40002 339.60001
6.1183157 0.46834481 0.12845829 528.76923 339.69232
6.1612062 0.48126614 0.11886068 259.5 340
18.877861 1.7469049 0.12387459 110 343
9.6260262 2.2952371 0.11611909 213 376
9.5673685 2.3245487 0.12387355 822.25 377
9.5348263 2.3600702 0.12799823 1099.3334 378
9.5522852 2.3647022 0.1202203 1126 378
9.5241146 2.4009206 0.13439359 673.66669 379
9.5573816 2.410049 0.11060686 637 379
11.778273 2.5462375 0.13119429 347.5 371
11.74753 2.593189 0.11466835 866 372
11.76998 2.5977075 0.13451405 769 372
11.816375 2.5548704 0.11888391 303 371
11.73172 2.6426921 0.12401843 815 373
11.782669 2.6001379 0.1473209 632 372
11.689395 2.6865149 0.11303709 249 374
11.735179 2.6969123 0.12026073 314 374
11.765361 2.650377 0.12410305 705 373
15.886333 3.7331724 0.10496258 280 375
16.080957 3.7789421 0.12480631 272 375
16.271381 3.8980722 0.14824663 258 376
15.972477 4.1206522 0.11946625 326 380
16.112818 4.1567488 0.14112647 350 380
16.069395 4.2201858 0.12280624 270 381
16.086561 4.2993364 0.12577114 250 382
16.198942 4.2540641 0.14492838 430 381
16.248789 4.3425965 0.14853416 316 382
16.162172 4.3948231 0.12906487 233 383
6.7454557 4.742609 0.13230336 1057.5 464
6.7754707 4.720274 0.13155609 355 463
6.6896672 4.7898221 0.14535551 1301 466
6.7094951 4.7752075 0.1294959 1289 465.33334
6.6924744 4.836112 0.13502517 1055 467
6.6813498 4.8722153 0.1360316 651 468
10.490642 5.8870182 0.1288161 264 440
10.384624 6.2489495 0.13797055 534 447
10.400857 6.2591333 0.107011 509 447
10.55399 6.2900276 0.10680302 441 446
10.3939 6.3165231 0.10812639 492 448
10.41861 6.3313832 0.13975598 538 448
9.860899 6.5914922 0.11604545 531 458
9.6322403 6.6819134 0.11892467 583 462
9.7245245 6.6842699 0.11849344 640 461
9.7651262 6.6502109 0.11764353 588 460
9.9121675 6.6886358 0.1176086 449 459
10.695079 6.7583299 0.14848548 486 452
10.42469 6.8422771 0.11785761 594 456
10.650784 6.8605895 0.11703698 592 454
10.746174 6.8568101 0.11647432 401 453
10.66337 6.9345088 0.1183626 584 455
13.187033 6.9707279 0.10603903 438 434
13.131845 7.0144253 0.10714541 539 435
13.003549 7.0911355 0.10924952 524 437
13.255697 7.1549697 0.14472231 303 436
13.05977 7.2699251 0.11232299 469 439
12.685769 9.4968252 0.11173392 448 470
12.753177 9.634634 0.11333442 439 471
12.852912 9.7988129 0.11514105 402 472
12.956984 9.9683342 0.11700086 410 473
13.285214 10.596476 0.12418787 369 477
10.336205 13.849182 0.12101822 371 536
10.425213 13.842929 0.12050027 270 535
10.172703 13.879583 0.1221491 516 538
10.26387 13.87752 0.12165979 538 537
10.01757 13.919597 0.12332808 556 540
10.097463 13.903045 0.12275939 421 539
9.8619356 13.957143 0.12448624 743 542
9.9619284 13.97004 0.1240934 702 541
9.7335472 14.032623 0.12586394 1049 544
9.8015137 14.000376 0.12520777 816 543
9.6609907 14.057929 0.12647788 1066 545
9.5396137 14.143218 0.12791252 1231 547
9.6051435 14.107755 0.12723841 1326 546
9.4899378 14.202578 0.1287317 1124 548
9.4349957 14.254241 0.12950498 1233 549
9.3835869 14.311567 0.1303138 1246 550
9.3286142 14.363668 0.13109139 1108 551
9.2765827 14.420626 0.13189991 898 552
9.233285 14.49179 0.13279821 723 553
9.1805468 14.548421 0.13360728 439 554
9.1185579 14.590405 0.13432503 218 555
6.9052663 -19.122446 0.19422561 150 40
6.9899955 -19.096388 0.19353428 145 41
18.045645 -16.83581 0.19573094 2937 149
18.126986 -16.764902 0.19427636 2394 150
18.212461 -16.697672 0.19285418 1827 151
22.981354 -16.127666 0.15995741 667 181
11.643803 -14.597507 0.19603339 230 115
11.654405 -14.480593 0.1942715 257 116
11.940054 -14.067134 0.18676203 222 122
11.98903 -14.000909 0.1855426 298 123
12.098996 -13.883118 0.18325591 313 125
12.148949 -13.818623 0.18205673 498 126
12.191306 -13.745695 0.18077354 905 127
12.271733 -13.71606 0.17992635 2338 128
12.324133 -13.654679 0.17876002 1635 129
11.847448 -6.8966541 0.15031201 312 200
11.850036 -6.8976202 0.1857117 336 200
11.875702 -6.8438458 0.18398957 234 201
12.048954 -4.8681145 0.19661047 146 233
7.6927776 -4.365912 0.16397637 702 202
7.707942 -4.3737493 0.19707391 556 202
7.6890273 -4.3195662 0.17310785 1104.6667 203
7.7259607 -4.2791171 0.17552249 778.60004 204.40001
7.7715473 -4.2790437 0.15015371 337 205
3.9339519 -2.6811385 0.17461345 1143.375 181.5
3.970623 -2.6569514 0.17298174 1242.5 183.5
3.9368548 -2.6459069 0.17479154 1741.6667 183
3.9612937 -2.6382511 0.16992334 837.66669 184
8.8987722 -2.0558617 0.19819427 333 269
8.9201918 -2.0615311 0.18834136 446 269
8.927166 -2.0234673 0.17234948 832.5 270
8.9534807 -2.0288289 0.18512814 874 270
8.9361162 -1.9850413 0.17142409 1202.4 271
8.9783602 -1.9537247 0.17485653 1128.3334 272
8.9493885 -1.9477584 0.16786295 1053 272
8.981657 -1.9203916 0.17815849 601.66669 272.83334
13.897399 -1.4340699 0.15386492 101 298
17.574667 -0.97483057 0.15259695 100 309
8.1846619 0.23887943 0.16616131 558.60004 329
8.22509 0.23791198 0.17185694 511.07144 329
8.2719603 0.23190612 0.18744832 372.42859 329
6.0882201 0.28924179 0.17879419 836.29999 333.60001
6.1213465 0.28577259 0.17327045 681.72223 333.33334
6.1701245 0.28420132 0.16022944 717.5 333
8.1929989 0.27378657 0.17416964 1265 330
8.2147093 0.27376616 0.17535566 1289.5588 330
6.0885124 0.33001167 0.17314002 1500.6799 335
6.111464 0.3155134 0.1742828 1377.5312 334.4375
8.1876984 0.31269455 0.16813792 1146.625 331
8.2222538 0.32332516 0.18167959 955.17499 331.375
6.0732327 0.37022156 0.17369026 1745.6346 336.51926
8.2256031 0.35249493 0.16434495 465.63638 332
8.258419 0.35608897 0.15726787 429.33334 332
6.0783129 0.41923156 0.1768036 1632.0751 338.35001
6.1056962 0.4408929 0.16922687 1411.8889 339
6.0914998 0.46443444 0.17836156 755.28577 340
6.1173139 0.46761242 0.17387465 702.33337 340.00003
9.5309525 2.3135781 0.17508963 596.75 377
9.5683393 2.3228159 0.17581472 411 377
9.5221214 2.376791 0.1773486 851.25 378.5
9.5702314 2.3669362 0.17918628 973.5 378
9.5288467 2.4222817 0.17780566 433 379.5
9.5573816 2.4085689 0.15845346 640 379
11.74994 2.5381756 0.18145539 255 371
11.780715 2.5457168 0.16275102 291.5 371
11.744603 2.5894289 0.1983223 872 372
11.776163 2.597677 0.17297125 662 372
11.81149 2.5509579 0.19476393 325 371
11.739033 2.6425662 0.17645893 732 373
11.756585 2.6470985 0.16357273 759 373
11.698163 2.686398 0.17990945 254 374
11.746382 2.6975389 0.1804619 228.5 374
11.785833 2.7077787 0.15414821 282 374
16.254173 3.8190837 0.16354121 313 375
16.240578 4.189476 0.16255891 318 380
16.404146 4.2313833 0.18485121 271 380
16.304317 4.2814498 0.16669728 348 381
16.459002 4.3217483 0.18940836 449 381
16.298168 4.431644 0.15216483 333 383
16.568415 4.4274759 0.19450685 443 382
16.444771 4.4712596 0.17519177 288 383
16.312395 4.511548 0.15557784 287 384
16.644423 4.5252647 0.19935252 373 383
6.7295923 4.7303286 0.17872584 1046 464
6.7632313 4.7109685 0.16597579 381 463
6.8040314 4.7392612 0.19060378 235 463
6.717061 4.7797565 0.1765157 1415 465.33334
6.704721 4.8293104 0.18644837 1273.3334 466.66669
6.6773343 4.867939 0.19622107 546 468
6.7070527 4.8905959 0.17228909 358 468
16.446857 4.8574486 0.16997673 356 388
16.708794 4.8560796 0.19252044 352 387
16.698946 4.9317832 0.19624816 352 388
16.534815 5.0398602 0.1774821 268 390
10.464856 5.9312725 0.18781537 334 441
10.579083 6.0574903 0.19145913 366 442
10.556867 6.106184 0.16306573 374 443
10.538733 6.1567655 0.16460565 525 444
10.469186 6.2378969 0.18269691 472.5 446
10.581335 6.2433643 0.18227714 463.5 445
10.409401 6.2635703 0.1683265 495 447
10.442723 6.4079676 0.17228399 400 449
10.517208 6.5171819 0.1750232 485 450
9.7824211 6.6617537 0.15089214 628 460
9.816185 6.6844926 0.18342102 701 460
9.8799534 6.6660299 0.16652173 544 459
10.010018 6.6919336 0.15043695 559 458
10.62981 6.6517496 0.17829095 593 451
9.6919937 6.7234674 0.15282595 604 462
9.7614708 6.709322 0.16828948 657 461
10.037357 6.7098994 0.18300755 507 458
9.7705736 6.7780781 0.18633233 517 462
10.746492 6.7906499 0.18166158 514 452
