# .PCD v0.7 - Point Cloud Data file format
VERSION 0.7
FIELDS x y z intensities index
SIZE 4 4 4 4 4
TYPE F F F F F
COUNT 1 1 1 1 1
WIDTH 1141
HEIGHT 1
VIEWPOINT 0 0 0 1 0 0 0
POINTS 1141
DATA ascii
1.9756237 -3.6285191 -0.88928032 2363 67.5
2.0130582 -3.6216249 -0.88772923 2366.5 69.5
2.0786107 -3.6473103 -0.89459801 2365.6667 72
2.1280181 -3.6414924 -0.89338374 2235 74.5
2.1675258 -3.6361377 -0.89223444 2142.5 76.5
2.23423 -3.6400433 -0.89358044 2095 79.5
2.2747297 -3.6349072 -0.89249194 2051 81.5
2.3135195 -3.6264439 -0.89054978 2099 83.5
2.3759458 -3.6377168 -0.89374316 2079.3335 86
2.4244576 -3.625464 -0.89089072 2066.5 88.5
2.4719844 -3.6286693 -0.89195698 2122 90.5
2.5210798 -3.6333928 -0.89341712 2173.5 92.5
2.5721107 -3.6399736 -0.8953588 2248 94.5
2.6176157 -3.6375074 -0.89497471 2172.5 96.5
2.6575725 -3.6435742 -0.89672714 2164 98
2.7585411 -3.6490023 -0.89864177 2035 102
3.037648 -3.6476667 -0.89978641 1873 113
3.0788951 -3.6330974 -0.89630717 1846 115
3.1284223 -3.6118665 -0.89118099 1910.5 117.5
3.1799533 -3.6086001 -0.89062572 1933.5 119.5
3.230058 -3.6028738 -0.88943839 2016.5 121.5
3.3906136 -3.645206 -0.88211185 2136 126
3.4142706 -3.6392729 -0.88076216 2134 127
3.4505415 -3.6469901 -0.88287371 2166 128
3.5419674 -3.6493537 -0.88394684 2053 131
3.5838549 -3.6456022 -0.88323641 1954 132.5
3.6295955 -3.6294298 -0.87945759 1674 134.5
3.721529 -3.6119564 -0.87560058 955.66669 138
3.7925491 -3.6192207 -0.87778401 893 140
3.820807 -3.6175041 -0.86822677 688 141
0.81930304 -3.5903308 -0.87343955 2436 5
0.8694849 -3.5888829 -0.8733387 2436.3335 8
0.9269619 -3.581409 -0.87174702 2542.75 11.5
0.97756267 -3.5796714 -0.87157488 2628.5 14.5
1.022367 -3.5881138 -0.8739562 2647.6667 17
1.0714339 -3.5783625 -0.87174165 2623.6667 20
1.1235175 -3.5792084 -0.87223327 2627.3335 23
1.1737527 -3.5725193 -0.8708021 2655 26
1.2291508 -3.5815353 -0.87338543 2648.3335 29
1.2808945 -3.577457 -0.87262511 2532.6667 32
1.3205028 -3.5628359 -0.86912411 2441.5 34.5
1.3728956 -3.5847721 -0.87497115 2386.6667 37
1.4228206 -3.5726604 -0.87216187 2325 40
1.4725676 -3.5836978 -0.87522829 2328.5 42.5
1.5182235 -3.5826015 -0.87519264 2338 45
1.5775983 -3.5914054 -0.87774318 2318 48
1.6906943 -3.5903058 -0.87806523 2410 54
1.7116187 -3.5942459 -0.87917668 2382 55
1.7922752 -3.5547419 -0.88856387 2414 60
1.8228731 -3.55756 -0.88945711 2410.5 61.5
1.8720694 -3.5576742 -0.88974857 2410.3335 64
1.927943 -3.5699379 -0.8932246 2400 66.5
1.9681733 -3.569983 -0.89345032 2407.5 68.5
2.018393 -3.5688515 -0.89342439 2374 71
2.0727329 -3.5742302 -0.89510769 2225.5 73.5
2.1283302 -3.5805709 -0.89704698 2137.6667 76
2.1758618 -3.5715528 -0.89496267 2108 78.5
2.2253866 -3.5833385 -0.89828092 2096 80.5
2.2726617 -3.5723014 -0.89567178 2145.6667 83
2.330709 -3.5779791 -0.89745235 2033.5 85.5
2.373383 -3.5755508 -0.89705014 2030 87.5
2.4284582 -3.5743442 -0.89703053 2126 90
2.4794986 -3.5658982 -0.89511317 2274.5 92.5
2.5340719 -3.5788932 -0.89877176 2244 94.5
2.5801799 -3.5783629 -0.89887965 2197.5 96.5
2.6122079 -3.5738435 -0.89787883 2122 98
2.6746168 -3.5781655 -0.89933121 2141 100.5
3.0369697 -3.5608807 -0.89677978 1876.5 115.5
3.081717 -3.5671165 -0.89863425 1926 117
3.2725034 -3.5877357 -0.88582122 2199 123.5
3.3309593 -3.5900798 -0.88672698 2205 125.5
3.3654211 -3.5808318 -0.88456249 2124 127
3.4101915 -3.5824881 -0.88522094 2141.5 128.5
3.4645724 -3.5780625 -0.8843866 2071 130.5
3.5269094 -3.5811834 -0.88551021 2091 132.5
3.5823691 -3.5761108 -0.88451731 1896 134.5
3.6254435 -3.5732965 -0.88403189 1498 136
3.6745872 -3.5603805 -0.88101435 1183.5 138
3.7784514 -3.5537758 -0.87988985 955 141.5
3.8207862 -3.5837564 -0.869115 808 142
0.73512733 -3.534894 -0.87779295 2440 0.5
0.77596879 -3.5330997 -0.87754524 2460 3
0.82572162 -3.534127 -0.87807626 2479.3335 6
0.87275922 -3.5212345 -0.87498516 2567.6667 9
0.92213935 -3.5187709 -0.87460947 2627 12
0.9704026 -3.5109575 -0.87284124 2648.6667 15
1.0223426 -3.5169122 -0.87466115 2653.3335 18
1.0759382 -3.5271435 -0.87759817 2621 21
1.1241879 -3.5164104 -0.87507308 2673 24
1.1770606 -3.5208547 -0.87650633 2653 27
1.2273892 -3.5156181 -0.87541711 2623 30
1.2827489 -3.5247579 -0.87808055 2453.6667 33
1.3320717 -3.5144439 -0.87566984 2384.3335 36
1.3775074 -3.5174379 -0.87668771 2404.5 38.5
1.4249281 -3.5247257 -0.87882894 2370.6667 41
1.4730265 -3.5089207 -0.87498868 2400.3335 44
1.5254571 -3.5264654 -0.87981498 2342.5 46.5
1.5718446 -3.5274296 -0.88031173 2382 49
1.6254108 -3.522244 -0.87925279 2443.3335 52
1.6773407 -3.5337303 -0.88250625 2440 54.5
1.7262257 -3.5368259 -0.88356876 2433.6667 57
1.7638565 -3.5353806 -0.88339454 2507 59
1.8283173 -3.5039768 -0.89388144 2437 63
1.8880037 -3.5061824 -0.89478266 2361 66
1.9177682 -3.5064955 -0.89502406 2459 67.5
1.9731468 -3.5171323 -0.89813137 2428 70
2.0205259 -3.5115156 -0.89689898 2256 72.5
2.0748301 -3.5174556 -0.89875883 2193 75
2.1253536 -3.5155308 -0.89851922 2126 77.5
2.1693649 -3.5193903 -0.89977419 2129 79.5
2.2315211 -3.5171909 -0.89952385 2144 82.5
2.2883058 -3.5049088 -0.89657927 2112 85.5
2.3366108 -3.5127406 -0.8989073 2053 87.5
2.4364655 -3.5132878 -0.89958423 2225 92
2.4670463 -3.5085888 -0.89850485 2264 93.5
2.5015092 -3.5093265 -0.89888346 2182 95
2.6410141 -3.5101473 -0.89984399 2218 101
3.0870926 -3.54175 -0.89208823 1867 118
3.1221676 -3.535826 -0.89073956 1947 119.5
3.1738834 -3.5332117 -0.89033723 2084.5 121.5
3.2215929 -3.5251853 -0.88851082 2171.5 123.5
3.2726352 -3.5202997 -0.88751626 2222 125.5
3.3241925 -3.515151 -0.88645625 2232.5 127.5
3.3798971 -3.5137224 -0.88638246 2167 129.5
3.4295537 -3.5204515 -0.88839084 2222 131
3.463172 -3.5096118 -0.88576031 2138.5 132.5
3.5176945 -3.5047283 -0.88478476 2018 134.5
3.5803242 -3.5072317 -0.88576692 1633 136.5
3.6370459 -3.5205274 -0.8800714 1235.5 138
3.7258923 -3.5490847 -0.87841964 992 140
3.7928269 -3.5212362 -0.87170601 780 143
0.72699082 -3.4840679 -0.88274843 2460.5 0.5
0.77524596 -3.4815845 -0.88234895 2485.5 3.5
0.83021724 -3.4711604 -0.87988585 2598.3335 7
0.87614053 -3.4566524 -0.87629479 2669 10
0.92885125 -3.4717445 -0.88056606 2673.3335 13
0.97537994 -3.4591594 -0.87748647 2688.3335 16
1.0262933 -3.4631476 -0.87881231 2655 19
1.0772886 -3.46615 -0.87987792 2690.6667 22
1.1278133 -3.4656224 -0.88000762 2656 25
1.1808685 -3.4724872 -0.88210547 2643.6667 28
1.2305592 -3.4668884 -0.88089001 2557.3335 31
1.2759306 -3.4735355 -0.88288921 2409.5 33.5
1.3148837 -3.4603736 -0.87961692 2414 36
1.369015 -3.464834 -0.88108468 2433 39
1.4227318 -3.4667187 -0.88186926 2395.6667 42
1.4819955 -3.4583106 -0.87996197 2375 45.5
1.5292214 -3.4636447 -0.88162392 2399.6667 48
1.5808696 -3.4566689 -0.88005495 2470 51
1.6317427 -3.4680662 -0.88333935 2558 53.5
1.6830391 -3.4787698 -0.88644266 2507.3335 56
1.7274044 -3.47296 -0.88514304 2491.5 58.5
1.7746086 -3.4925139 -0.89056444 2488.5 60.5
1.8206451 -3.4882038 -0.88967031 2467 63
1.8668883 -3.4622893 -0.89167202 2432.5 66
1.9017605 -3.4520338 -0.89776313 2452 68
1.9820516 -3.4546061 -0.89888448 2270 72
2.3756554 -3.4500847 -0.8997668 2207 91
3.0161557 -3.4992981 -0.89897478 1942.5 116.5
3.070118 -3.4855716 -0.89563322 1909.6667 119
3.1209233 -3.4674525 -0.89111346 2138 121.5
3.182025 -3.4756899 -0.89361691 2167.5 123.5
3.2248259 -3.4623704 -0.89032346 2211.5 125.5
3.2722466 -3.4536662 -0.88827491 2201.5 127.5
3.3264365 -3.4516022 -0.88801801 2200.5 129.5
3.3730106 -3.4558067 -0.88937783 2132 131
3.4153814 -3.4549165 -0.88936824 2183.5 132.5
3.4858158 -3.4521484 -0.88901174 2056 135
3.5326622 -3.4544082 -0.88985896 1803 136.5
3.6214767 -3.4697974 -0.88529932 1312 139
3.6793928 -3.4834099 -0.88012004 1040 140.5
3.7195649 -3.4767585 -0.8786099 1028 142
3.7785025 -3.4734783 -0.87340689 840.5 144
0.72657287 -3.4321876 -0.88614643 2452 1
0.77586502 -3.4382858 -0.88805217 2541.3335 4
0.82171744 -3.4257369 -0.88491642 2681.6667 7
0.87528986 -3.4119289 -0.88148284 2696.25 10.5
0.93307972 -3.4161959 -0.88294065 2677.6667 14
0.98021764 -3.4085681 -0.88113755 2685.3335 17
1.0321958 -3.4187183 -0.88414907 2682.3335 20
1.0802139 -3.4126155 -0.88276136 2666 23
1.1240431 -3.4309537 -0.88220525 2652 25.333334
1.1746614 -3.4205546 -0.88540387 2547.5 28.5
1.2260571 -3.422209 -0.88612378 2511 31.5
1.2685618 -3.4216743 -0.88620639 2444.3335 34
1.3173156 -3.4133801 -0.88423246 2448.6667 37
1.3700504 -3.4153566 -0.88504624 2424.6667 40
1.4254817 -3.4243784 -0.88204783 2381.3335 43
1.4747405 -3.4131477 -0.88500988 2462.6667 46
1.5293684 -3.4158771 -0.88603657 2493.3335 49
1.5686488 -3.4023323 -0.88259751 2544 51.5
1.6232126 -3.423254 -0.88852441 2518.6667 54
1.6771209 -3.4202619 -0.88800609 2516.6667 57
1.7290307 -3.4317937 -0.89138937 2544.5 59.5
1.7684847 -3.4354839 -0.89259386 2531 61.5
1.8172539 -3.4379253 -0.89351189 2481 64
1.857252 -3.4410286 -0.89456117 2445 66
2.9963541 -3.4246798 -0.89623541 1907 118
3.0284538 -3.4167571 -0.89427257 1935.5 119.5
3.0682561 -3.4174898 -0.89468229 2188 121
3.1226163 -3.4190786 -0.8954004 2208 123
3.1812348 -3.409483 -0.89312834 2191 125.5
3.2292337 -3.4022236 -0.89142907 2212.5 127.5
3.2836666 -3.4012446 -0.89145577 2252 129.5
3.3299298 -3.4057143 -0.89290661 2177 131
3.4453456 -3.4063003 -0.89368033 2102 135
3.4610586 -3.4246566 -0.89010191 2018.5 135
3.5072367 -3.4093471 -0.8948313 1797 137
3.5713301 -3.4479363 -0.88835388 1605 138
3.624855 -3.4405835 -0.88669509 1140 140
3.672524 -3.4417853 -0.88726687 1023 141.5
3.7201431 -3.4124212 -0.87975711 988.66669 144
0.71891582 -3.3850484 -0.89014626 2503 1
0.77402401 -3.3831854 -0.88992977 2581 4.5
0.82786715 -3.3742332 -0.88776171 2705.6667 8
0.87487185 -3.369844 -0.88680887 2709.6667 11
0.92168319 -3.3645608 -0.88560975 2721 14
0.97058725 -3.3664479 -0.88638854 2686.3335 17
1.0194447 -3.3670707 -0.8868205 2687.3335 20
1.0689552 -3.3685727 -0.88749695 2653.3335 23
1.123172 -3.3845329 -0.89216483 2548.6667 26
1.1705937 -3.3763404 -0.89017075 2510.6667 29
1.2209829 -3.3763838 -0.89045191 2458.3335 32
1.270751 -3.3736205 -0.88995975 2443.6667 35
1.3202592 -3.368943 -0.88894129 2468.3335 38
1.3710474 -3.3669307 -0.88866055 2424.3335 41
1.4224107 -3.3664415 -0.88460177 2429.75 44
1.4741724 -3.3634727 -0.88826293 2464 47
1.5247974 -3.3578267 -0.88698471 2564.6667 50
1.5724953 -3.365088 -0.88923138 2594 52.5
1.622324 -3.3758626 -0.89245313 2534.6667 55
1.676127 -3.3737383 -0.89215791 2517 58
1.7247272 -3.3789217 -0.89383936 2563.5 60.5
1.7720308 -3.38027 -0.89446187 2537 63
1.821473 -3.3848019 -0.89596921 2504.5 65.5
1.8524277 -3.3894639 -0.89741343 2488 67
2.990335 -3.3677015 -0.89752316 2058 119.5
3.0368366 -3.3617547 -0.89614034 2210.5 121.5
3.0745237 -3.3600934 -0.895886 2239 123
3.1142716 -3.3602619 -0.89614463 2258 124.5
3.2711833 -3.3538086 -0.89521277 2244.5 130.5
3.3115113 -3.3522289 -0.89499485 2242 132
3.372982 -3.3798738 -0.89171046 2228 133.33334
3.4025702 -3.3921537 -0.8896414 2206 134
3.477488 -3.3602886 -0.89809245 1836 137.5
3.5268245 -3.3991425 -0.892187 1680 138
3.5575383 -3.3850245 -0.8885479 1406.5 139.5
3.6128106 -3.3796964 -0.88740754 1085 141.5
3.6817849 -3.3865483 -0.88962138 1026 143.5
3.7068784 -3.3659101 -0.88419586 925 145
0.69626868 -3.3412814 -0.89514375 2539 0
0.72674197 -3.3371198 -0.894144 2607.3335 2
0.77364445 -3.3365695 -0.89424109 2630.3335 5
0.82647645 -3.326112 -0.89160168 2651.5 8.5
0.88233703 -3.3285348 -0.89257753 2678 12
0.92681187 -3.3153415 -0.8891288 2705 15
0.97580528 -3.3196425 -0.89059281 2700.6667 18
1.0235209 -3.3180227 -0.89039552 2670 21
1.0759152 -3.3311977 -0.8943572 2588.3335 24
1.1344655 -3.3355021 -0.89587307 2441 27.5
1.1728085 -3.3261657 -0.89346933 2460.3335 30
1.2253551 -3.3344257 -0.89605856 2424.6667 33
1.2704632 -3.3194158 -0.89210576 2488.3335 36
1.3212862 -3.3202009 -0.89259708 2464 39
1.36936 -3.3124347 -0.89068407 2456.3335 42
1.4180412 -3.3055172 -0.88901174 2528.6667 45
1.4752851 -3.3188438 -0.89304155 2583.3335 48
1.5253561 -3.312851 -0.89163488 2601.6667 51
1.5760262 -3.3277597 -0.89607179 2595 53.5
1.6188281 -3.3234272 -0.89509028 2553.3335 56
1.6764845 -3.3306606 -0.89741987 2586 59
1.7311349 -3.3300636 -0.89754534 2553.6667 62
1.7651898 -3.3241193 -0.89606667 2538 64
1.827607 -3.3365633 -0.89987767 2420 67
2.9869461 -3.3145692 -0.89993399 2142 121
3.0227065 -3.3113809 -0.89923441 2258 122.5
3.0725555 -3.3089931 -0.89883387 2263 124.5
3.1403565 -3.3448472 -0.89205557 2246 126
3.181592 -3.345819 -0.89254248 2297 127.5
3.2202821 -3.3435881 -0.89213723 2175 129
3.330766 -3.3429477 -0.89255184 2285 133
3.3520463 -3.33568 -0.89067197 2211 134
3.4236679 -3.3180387 -0.89751387 1857 137
3.4831672 -3.3198094 -0.8954975 1694.5 139
3.5259228 -3.3349333 -0.89139605 1517 140
3.5808303 -3.3297899 -0.89027852 1058 142
3.6401856 -3.3281081 -0.89013433 1007 144
3.6774864 -3.319448 -0.88795805 910.5 145.5
3.714896 -3.344017 -0.87834132 793 146
0.68945932 -3.2978456 -0.89985019 2535 0
0.72723538 -3.2934132 -0.89879143 2717.5 2.5
0.78056908 -3.2889223 -0.89779937 2675 6
0.8269285 -3.2873609 -0.89760327 2686.6667 9
0.87159485 -3.2776928 -0.89509171 2661.6667 12
0.9186902 -3.2777488 -0.89535987 2738.3335 15
0.97529662 -3.2828116 -0.89710373 2681.75 18.5
1.0310801 -3.2826695 -0.89736211 2621 22
1.0955714 -3.2832987 -0.89788657 2475 26
1.1277856 -3.2825153 -0.89783621 2474.3335 28
1.1621506 -3.2882445 -0.89965045 2491 30
1.2242459 -3.2773042 -0.89687014 2437.3335 34
1.2840433 -3.2823329 -0.89862132 2486 37.5
1.3212624 -3.2697663 -0.89524508 2470.3335 40
1.3745579 -3.2770176 -0.89759386 2565.6667 43
1.4198596 -3.2625575 -0.89372218 2609 46
1.472793 -3.266259 -0.89505881 2605.6667 49
1.5294752 -3.2771845 -0.89847124 2643.3335 52
1.5805278 -3.2733924 -0.89766568 2590 55
1.6667511 -3.2673495 -0.89640814 2518 60
1.7251524 -3.275774 -0.89911807 2585 63
3.0904365 -3.2851627 -0.89227074 2294 126
3.1302881 -3.2853818 -0.89254516 2309.5 127.5
3.1742828 -3.2895567 -0.89394712 2291 129
3.2194734 -3.2943559 -0.89552987 2274 130.5
3.2764063 -3.2963424 -0.8963896 2263.5 132.5
3.3247085 -3.2885106 -0.89445949 2148.5 134.5
3.3725412 -3.2939577 -0.89623743 1936 136
3.4859285 -3.2913146 -0.89610547 1532 140
3.5068476 -3.2685876 -0.88986683 1137 141.5
3.576335 -3.2776532 -0.89277178 1047 143.5
3.6347232 -3.2751207 -0.89237654 1051.5 145.5
3.6887996 -3.2865362 -0.87899059 943 147
0.7558068 -3.2378213 -0.89969552 2717 5
0.92888117 -3.2201462 -0.89550436 2750 16.5
0.95472097 -3.2298174 -0.89844418 2728 18
1.0337346 -3.2313051 -0.89929903 2550.6667 23
1.0656548 -3.2320497 -0.8996858 2523 25
1.1367681 -3.2293897 -0.89929682 2427.5 29.5
1.2415869 -3.2277803 -0.89939296 2469 36
1.2562684 -3.2229903 -0.89808428 2480 37
1.338261 -3.2215648 -0.89811116 2514 42
1.3686066 -3.2137828 -0.89601994 2570.6667 44
1.4153965 -3.2258892 -0.89977753 2669 46.5
1.4630814 -3.2180505 -0.89776284 2629 49.5
1.6117072 -3.2214162 -0.899535 2583 58
3.0207329 -3.246505 -0.89773011 2341 124.5
3.0848677 -3.2456946 -0.89784312 2301 127
3.1235731 -3.2447963 -0.89779484 2313 128.5
3.1717989 -3.2392595 -0.89647782 2299.5 130.5
3.2279394 -3.2412882 -0.89735579 2257.5 132.5
3.2728465 -3.2451055 -0.89868248 2202 134
3.3263712 -3.2427619 -0.89830232 1916 136
3.3678546 -3.2417755 -0.8982439 1856.5 137.5
3.4389184 -3.2409027 -0.89837623 1564 140
3.4817998 -3.2398944 -0.89831901 1260.5 141.5
3.5293307 -3.2286115 -0.89536333 1134 143.5
3.573307 -3.2134514 -0.8912853 1052.5 145.5
3.6377506 -3.2227507 -0.88873762 981.33337 147.33334
1.3359061 -3.1677165 -0.89893705 2649 43
3.0360186 -3.1878181 -0.89744353 2345 127
3.0796876 -3.1929541 -0.89916539 2323.5 128.5
3.1434715 -3.1907065 -0.89885652 2286 131
3.1660953 -3.186424 -0.89773756 2293 132
3.2739992 -3.1853793 -0.89801371 1908 136
3.4176896 -3.1876423 -0.89943993 1567 141
3.4658062 -3.177973 -0.89689738 1128 143
3.5723753 -3.1800954 -0.89808381 1146 146.5
3.634645 -3.1672294 -0.89469129 922 149
3.1506822 -3.1380637 -0.89994293 2264 133
3.5096791 -3.1315801 -0.8999598 1150 146
3.5685172 -3.1229358 -0.89228129 1041 148.33334
3.5362189 -3.0696123 -0.89786375 1064 149
14.408111 0.036508203 -0.86581773 225 307
5.5720148 0.097891174 -0.8556906 1874 360
5.6548467 0.095113844 -0.8700121 1530 360
5.5275493 0.11828694 -0.87021995 2518 361
5.5837493 0.10542388 -0.87536424 2088.25 360.75
5.6166677 0.11184631 -0.86994475 1563 360.33334
5.6844301 0.12915759 -0.87090397 1908.5 360
5.7178526 0.13083559 -0.88477105 1069 360.33334
5.7554293 0.13341419 -0.8824119 1567 360
14.509898 0.1807564 -0.85544658 304 307
14.570776 0.15693694 -0.89459217 250 337
14.60969 0.20424566 -0.88825852 282 337
14.643442 0.78510183 -0.8822037 322 341
14.663372 0.7725758 -0.89466393 304 341
15.325481 0.79440534 -0.8623457 279 340
14.684286 0.87695813 -0.89118809 354.5 342
14.719648 0.88608801 -0.88699359 283 342
14.794354 0.89550775 -0.8872298 365 342
15.461632 1.0871718 -0.86907184 282 343
14.676593 1.1429802 -0.88813138 404 345
15.156505 1.678967 -0.89679372 435 351
15.737401 1.6960579 -0.87736541 490 350
14.963559 1.7255116 -0.8978017 413 352
15.530581 1.820318 -0.88028699 337 352
15.079456 1.8925697 -0.89939815 483 354
15.38868 2.0174847 -0.89861262 362 355
15.504451 2.037514 -0.89582109 461 355
15.83689 2.021662 -0.87922585 342 354
16.557787 2.0517387 -0.88343638 248 353
12.941898 2.9433684 -0.89962518 162 376
12.823073 2.9817495 -0.87828749 202.33334 377
12.981754 2.9570653 -0.88851845 152 376
12.576174 3.0373349 -0.88440716 206 379
12.694207 3.0075426 -0.88496691 224 378
12.702937 3.0144167 -0.8702476 217 378
12.360882 3.0970433 -0.89156532 252 381
12.628983 3.057245 -0.86548388 142 379
12.269384 3.1332452 -0.88453126 217.33334 382
12.193265 3.1728129 -0.87828833 150 383
12.218823 3.1794457 -0.88040233 180.5 383
12.031162 3.2406509 -0.88744092 187 385
12.1161 3.2069523 -0.8870815 295 384
11.808345 3.2890487 -0.89081836 227 387
11.886112 3.2571468 -0.88243997 221.5 386
11.914459 3.2649426 -0.88500625 183 386
11.712305 3.3175385 -0.88906133 294 388
11.859212 3.3080347 -0.87859488 169 387
11.522589 3.3707123 -0.8930555 315 390
11.580903 3.3924763 -0.88171607 236 390
11.639708 3.3543816 -0.88088518 201 389
11.379093 3.4372702 -0.89203131 252 392
11.451826 3.4067962 -0.88467044 245 391
12.219836 3.4787626 -0.87248087 273 388
11.165791 3.5337572 -0.88910699 262 395
11.289554 3.5186908 -0.89481366 234 394
12.212626 3.5325918 -0.8855958 249 389
12.501279 3.5071979 -0.86260557 229 387
11.000451 3.5857437 -0.89215428 278 397
11.10659 3.5687973 -0.88857639 243 396
11.851974 3.5954273 -0.88026649 272 392
12.16979 3.5805736 -0.8783977 296 390
12.332282 3.5768783 -0.85925967 226 389
10.930288 3.6138699 -0.89865482 240 398
11.730924 3.6126411 -0.88374197 267 393
11.950173 3.6302605 -0.8697207 276 392
12.049467 3.6003141 -0.8824814 256 391
12.260608 3.6122847 -0.86715978 264 390
10.637704 3.6712685 -0.89197165 246 401
11.631451 3.6946511 -0.88309133 373 395
11.7478 3.6772282 -0.87963277 291 394
11.837555 3.6505787 -0.87387604 324 393
10.588181 3.704289 -0.89960641 306 402
11.446291 3.7423868 -0.89327413 245 397
11.52844 3.7154794 -0.88741678 353 396
11.766259 3.7424643 -0.87598568 298 395
11.861886 3.7178264 -0.87085432 301 394
12.627707 3.7305501 -0.85885769 144 390
10.608902 3.7670481 -0.89461005 275 403
11.342381 3.7613795 -0.89716554 295 398
11.428391 3.7947967 -0.88617289 274 398
11.736047 3.7876942 -0.88617402 316 396
11.91151 3.7936668 -0.86919755 275 395
12.050128 3.7819514 -0.86730826 269 394
11.224226 3.8324161 -0.8937006 289 400
11.40839 3.8419545 -0.89685625 257 399
11.632767 3.8086212 -0.89041597 324 397
11.390069 3.8942757 -0.88895369 287 400
11.55278 3.8957238 -0.89013678 270 399
11.625929 3.8656864 -0.88380271 286 398
12.017596 3.8888793 -0.87040758 283 396
12.186824 3.8870075 -0.87089115 218 395
11.317907 3.9231644 -0.89503604 302 401
11.911061 3.9101045 -0.87448221 274 397
11.474082 3.9827192 -0.88803989 294 401
12.058727 3.9638357 -0.86584216 233 397
16.420086 3.9780979 -0.87203479 143 378
11.320704 4.0372243 -0.89913726 322 403
11.410088 4.0147705 -0.89470375 295 402
11.561317 4.0734153 -0.88657629 274 402
11.994068 4.1174169 -0.87774414 216 400
11.67801 4.1755476 -0.88818187 253 403
11.523366 4.2308965 -0.89889002 345 405
12.005617 4.240983 -0.88138974 196 402
12.155227 4.2360916 -0.88118351 188 401
11.796856 4.2801208 -0.88823611 244 404
11.558457 4.3047786 -0.89198756 339 406
11.710317 4.3050714 -0.89284533 314 405
11.953216 4.3421226 -0.87928963 217 404
11.733822 4.432714 -0.89606011 269 407
11.680817 4.5319562 -0.8910923 311 409
11.954615 4.521944 -0.89060152 251 407
12.039182 4.6770139 -0.89791501 273 409
12.31515 4.6686721 -0.87528712 189 407
11.851934 4.7842069 -0.89397913 291 412
12.046105 4.8034182 -0.89850771 254 411
12.104963 4.8919544 -0.89092505 227 412
11.718401 5.0938592 -0.89822775 268 418
14.458632 5.2307496 -0.86035109 185 403
12.830142 5.4652481 -0.88895768 221 416
12.380017 5.7229009 -0.89986366 241 423
13.371474 6.8585997 -0.8694827 147 432
13.244534 7.0115433 -0.88761812 227 435
13.363729 7.1540866 -0.86997133 212 436
12.448822 7.3704286 -0.89072937 216 446
13.427936 7.5720305 -0.88202441 239 441
13.305397 7.7320356 -0.89945954 325 444
13.583194 7.7428207 -0.86294419 240 442
13.608499 7.9145007 -0.88159686 310 444
13.422792 7.9621606 -0.88577616 357 446
13.745411 7.9995193 -0.85043007 365 444
13.379994 8.0152073 -0.89127725 431 447
13.704141 8.0550785 -0.85592556 454 445
13.69691 8.1309433 -0.86368382 460 446
13.620069 8.165062 -0.8667919 492 447
13.328299 8.226366 -0.87158012 674 450
13.455222 8.2249556 -0.8720926 588 449
13.560228 8.209075 -0.87100458 572 448
13.302194 8.2900515 -0.87798923 684 451
13.241226 8.3317356 -0.88195682 588 452
13.074533 8.3852539 -0.88659286 658 454
13.169218 8.3660469 -0.88510966 533 453
12.927075 8.4491549 -0.8923955 652 456
12.982436 8.4054346 -0.88818967 633 455
12.971239 8.4829845 -0.85287625 470 456
12.892348 8.506381 -0.8980962 596 457
12.766779 8.5876284 -0.8620382 481 459
12.861506 8.5710011 -0.86090457 503 458
12.962142 8.5575867 -0.86011541 384 457
12.696034 8.6199589 -0.86482966 449 460
12.630996 8.6558132 -0.86799479 578 461
12.681296 8.7718229 -0.87958556 457 462
11.982513 8.8346853 -0.88210779 514 469
12.208665 8.8401566 -0.8838129 461 467
12.290994 8.8191309 -0.88218558 475 466
11.931665 8.877183 -0.88599527 643 470
12.168958 8.8920364 -0.88867438 525 468
12.459327 8.8592415 -0.88697451 497 465
12.710416 8.8740597 -0.88972163 516 463
11.866355 8.9085579 -0.88872147 580 471
12.801811 8.9429951 -0.85295457 312 463
11.841423 8.9749985 -0.85095364 610 472
12.704711 8.952424 -0.89734584 425 464
11.802742 9.0265055 -0.8555311 555 473
11.671339 9.0870781 -0.86046958 701 475
11.747298 9.0649662 -0.85881168 625 474
11.658747 9.1589479 -0.86707067 683 476
11.691717 9.2676792 -0.87732673 595 477
11.642424 9.3110266 -0.88109243 569 478
17.700727 9.3310537 -0.8678807 170 434
11.712123 9.4512119 -0.89445597 590 479
11.675578 9.5079699 -0.87589943 612 480
11.667965 9.5888405 -0.85930884 505 481
17.629936 9.5889311 -0.89015269 257 437
11.678637 9.6832161 -0.86764896 499 482
11.69175 9.7804422 -0.87625188 604 483
7.7179041 9.8921833 -0.8655082 129 532
11.696633 9.8714933 -0.88427019 606 484
7.088881 9.9449234 -0.86688465 434 542
7.142767 9.9291277 -0.86577672 377 541
7.8701 9.9096727 -0.86783063 152 530
17.856482 9.9193716 -0.8731088 301 439
7.0315757 9.9555264 -0.86751908 993 543
7.2453547 9.9812059 -0.87087905 144 540
11.729699 9.9874983 -0.89462483 445 485
6.9541759 10.030176 -0.87367195 2286 545
7.0003257 10.003601 -0.87157774 1963 544
6.8615732 10.082694 -0.87780339 1755 547
6.9140663 10.065629 -0.87657678 2306 546
11.739348 10.088795 -0.85555047 485 486
6.818428 10.113623 -0.88029534 783 548
11.704052 10.147173 -0.86021513 546 487
11.773969 10.298611 -0.87315041 574 488
11.801038 10.413662 -0.88284302 463 489
11.747138 10.457075 -0.88616896 524 490
11.761854 10.562575 -0.89500475 439 491
11.867201 10.756291 -0.86190557 548 492
11.856666 10.841207 -0.86850935 574 493
11.85803 10.937802 -0.87609035 407 494
11.810021 10.988817 -0.87984234 430 495
11.842224 11.115848 -0.88996911 464 496
11.805703 11.17852 -0.89469451 227 497
7.2415566 12.219547 -0.89490724 1173 561
7.3132057 12.219327 -0.89526117 1145 560
7.3895831 12.226434 -0.89617938 850 559
7.0579038 12.271701 -0.8978011 1181 564
7.1239271 12.262989 -0.89750028 1179 563
7.1905055 12.2548 -0.89724088 1210 562
6.9845233 12.526728 -0.85784686 922 567
6.8708773 12.579098 -0.86087453 284 569
6.9558473 12.604787 -0.86308646 121 568
6.781467 12.677252 -0.8671875 675 571
6.8771591 12.723856 -0.87089837 942 570
6.8476644 13.516245 -0.86027366 155 576
7.434062 14.697659 -0.86576074 222 576
7.279026 14.707079 -0.86551833 236 578
7.3560543 14.701672 -0.8655957 319 577
9.3060894 -10.998173 -0.81155747 274 121
9.3470592 -10.94964 -0.80821109 404 122
9.4039526 -10.91997 -0.80632979 313 123
9.6101847 -10.676532 -0.84166449 297 128
9.632843 -10.608348 -0.83645016 295 129
9.7179775 -10.516958 -0.82974422 310 131
9.7328253 -10.441282 -0.82390368 315 132
9.8042765 -10.427091 -0.82316327 280 133
9.8525734 -10.387718 -0.82033432 223 134
9.9061966 -10.353927 -0.8179692 282 135
2.0848067 -10.299335 -0.82489836 317 5
9.9404163 -10.299644 -0.8139016 319 136
9.9736547 -10.244544 -0.80976498 373 137
10.033023 -10.216564 -0.80788398 299 138
2.1101325 -10.189904 -0.81592441 267 6
2.1539538 -10.177187 -0.8150928 269 7
10.062997 -10.158312 -0.80348402 341 139
10.142467 -10.150409 -0.80327678 327 140
2.1816707 -10.086183 -0.80766433 253 8
9.9966364 -10.086171 -0.84806728 269 139
10.070899 -10.073589 -0.84740436 320 140
10.139601 -10.054899 -0.84620452 226 141
10.179307 -10.006956 -0.84242082 202 142
10.248643 -9.9882812 -0.8412255 295 143
10.263745 -9.9161882 -0.83530521 264 144
10.324299 -9.8885908 -0.83332211 263 145
10.383364 -9.8592739 -0.8311882 341 146
2.4844687 -9.800293 -0.83263248 104 16
10.39392 -9.7835312 -0.8249408 264 147
10.426517 -9.7291164 -0.82058185 310 148
10.498206 -9.711421 -0.81948018 260 149
2.6299574 -9.6581631 -0.82087517 115 20
2.7144923 -9.6358595 -0.81934929 171 22
10.515031 -9.6423922 -0.81382382 278 150
10.588046 -9.6254082 -0.81278819 258 151
10.655207 -9.6025953 -0.81123728 252 152
10.664576 -9.5272026 -0.80501282 305 153
10.7382 -9.5098295 -0.80394799 289 154
2.7618105 -9.476346 -0.84927911 130 24
10.788723 -9.4714603 -0.80101675 265 155
3.0095117 -9.4060183 -0.80064535 177 30
3.1488013 -9.4166718 -0.80230349 200 33
10.673486 -9.4476986 -0.84395343 275 154
10.761094 -9.4427357 -0.8439697 293 155
10.809127 -9.4022665 -0.84065616 301 156
2.8516495 -9.3233938 -0.83557612 149 27
10.832928 -9.3405781 -0.83534968 306 157
10.890386 -9.3082199 -0.83279884 327 158
7.8789997 -9.2792549 -0.81467396 399 121
10.956861 -9.283329 -0.83095187 291 159
3.0048749 -9.2429028 -0.82891309 212 31
11.006582 -9.2438307 -0.82773244 388 160
11.019495 -9.1732349 -0.82158571 337 161
3.0936177 -9.104949 -0.81659371 234 34
3.2285674 -9.1104708 -0.8178035 255 37
11.076468 -9.1397762 -0.81893545 380 162
11.130276 -9.1034546 -0.81601685 338 163
3.2576966 -9.0657673 -0.81381339 262 38
3.8933864 -9.0623236 -0.81678361 175 52
11.201738 -9.0813856 -0.81444401 273 164
3.3387284 -9.0427322 -0.81209886 265 40
11.254614 -9.0437689 -0.81140661 362 165
11.284428 -8.9853783 -0.8271538 287 166
11.345961 -8.9564743 -0.8041957 266 167
3.2948706 -8.9157686 -0.84169018 242 40
4.2919993 -8.9000444 -0.80381441 157 62
11.337375 -8.9455843 -0.84448779 241 167
3.2372227 -8.8769388 -0.837614 228 39
3.3200452 -8.863452 -0.83673054 192 41
11.378064 -8.8979416 -0.84028518 260 168
11.391042 -8.8285818 -0.83392757 328 169
3.3311021 -8.7736969 -0.82805538 228 42
3.5575945 -8.7905951 -0.83087188 246 47
4.0947342 -8.7737989 -0.83201838 209 59
11.440691 -8.7880363 -0.83042872 305 170
11.532933 -8.7800798 -0.83016908 320 171
3.434531 -8.7002382 -0.82144397 207 45
3.4970903 -8.7488508 -0.82649738 210 46
11.574505 -8.7327728 -0.82600218 296 172
11.646151 -8.708128 -0.82409 269 173
3.5809579 -8.6819162 -0.82041943 220 48.5
3.6522949 -8.6941566 -0.82197952 200 50
3.8818295 -8.6033573 -0.81433386 211 56
3.9413252 -8.6360407 -0.81782162 177 57
11.650662 -8.6327925 -0.8171351 294 174
4.0512938 -8.5781012 -0.8127538 181 60
5.2034945 -8.5799503 -0.8188982 124 84
11.702846 -8.593257 -0.813743 335 175
11.774209 -8.5676184 -0.81173736 277 176
3.6220596 -8.5087938 -0.84434628 235 51
4.3112302 -8.5447922 -0.81085879 156 66
5.028522 -8.5385628 -0.81396586 139 81
11.750075 -8.5457764 -0.84946233 236 176
11.802794 -8.5103817 -0.80658346 276 177
3.5216219 -8.475275 -0.84040529 235 49
3.6524553 -8.4769201 -0.84125078 265 52
3.9102643 -8.4615917 -0.84102166 215 58
11.780197 -8.4898424 -0.84417647 280 177
11.878868 -8.4854755 -0.82446152 261.5 178
3.6830261 -8.4458609 -0.83823937 251 53
3.7680869 -8.4400654 -0.83808845 258 55
4.1061029 -8.4004049 -0.83579141 238 63
4.1537118 -8.4053936 -0.83654714 185 64
11.918417 -8.4339676 -0.83945584 339 179
3.9255376 -8.3969593 -0.83450472 231 59
3.9656715 -8.3875389 -0.83375114 203 60
4.1848965 -8.3761063 -0.83371973 240 65
4.5515008 -8.3710337 -0.83510065 184 73
11.950422 -8.3791304 -0.83428633 266 180
4.6181574 -8.3198671 -0.8302241 182 75
5.1084208 -8.3322735 -0.83402932 146 85
11.983807 -8.3253231 -0.82922417 196 181
4.4168463 -8.2917709 -0.82631409 208 71
5.2339067 -8.292695 -0.83063996 136 88
12.111506 -8.2597723 -0.82350773 320 183
4.6259384 -8.2477932 -0.82290882 197 76
12.155057 -8.2126207 -0.81914574 261 184
3.8596828 -8.1526575 -0.84825307 233 60
3.9497595 -8.1594019 -0.84944034 256 62
12.246398 -8.1976643 -0.81816339 298 185
3.9868274 -8.1453457 -0.84813064 224 63
4.1501017 -8.1186476 -0.84612423 249 67
4.2460403 -8.1320467 -0.84805292 251 69
4.32371 -8.1081829 -0.84590578 224 71
12.232478 -8.1094513 -0.82885373 295 186
12.333688 -8.1023941 -0.80934638 250 187
12.356153 -8.1130905 -0.84919661 228 187
4.2625966 -8.076829 -0.84223932 199 70
4.4546003 -8.0982122 -0.84551877 213 74
4.7058806 -8.0514317 -0.84182268 199 80
12.396663 -8.0631266 -0.84430736 298 188
4.9153261 -8.006094 -0.83806413 194 85
12.359112 -8.0426416 -0.80366457 244 188
12.43613 -8.0124226 -0.83933711 289 189
12.457051 -8.0301876 -0.80295986 266 189
5.0261221 -7.9521346 -0.83287323 178 88
5.3008389 -7.9997525 -0.8393842 188 93
4.8135238 -7.914752 -0.82777768 162 84
12.435104 -7.935585 -0.8314901 270 190
12.542204 -7.9281645 -0.83128744 232 191
12.630063 -7.9077005 -0.82965404 256 192
12.704964 -7.8023591 -0.81929129 221 194
12.80547 -7.7883277 -0.81837976 290 195
5.2780666 -7.7358146 -0.84899449 205 96
12.836987 -7.731576 -0.81275117 343 196
12.902464 -7.6910887 -0.84579509 235 197
12.972155 -7.6569505 -0.84250885 266 198
12.939561 -7.641717 -0.80411178 210 198
13.024589 -7.6122141 -0.83800095 261 199
13.053596 -7.5535784 -0.83188665 214 200
13.131605 -7.5233111 -0.8290571 315 201
13.206994 -7.4910231 -0.82599807 270 202
13.282347 -7.4582233 -0.8228842 275 203
13.349823 -7.4205184 -0.81920546 285 204
13.442088 -7.3183193 -0.8267014 238.5 206
13.480703 -7.2639818 -0.82097656 307 207
13.570974 -7.2373552 -0.81850833 241.5 208
13.643639 -7.1985784 -0.83233386 242 209
13.719329 -7.1630664 -0.82875812 227 210
13.756004 -7.1067367 -0.82265407 209 211
13.862555 -7.0863652 -0.82093012 278 212
13.861557 -7.0103183 -0.81242746 212 213
13.962674 -6.986136 -0.81024957 203 214
3.3850036 -6.281889 -0.80150515 1285 71
3.2216916 -6.1607885 -0.81693405 1386 68
3.1676049 -5.9193301 -0.81437701 1568 70
1.8490758 -5.8771782 -0.80152953 1608 27
1.8738365 -5.8657994 -0.80004251 1557 28
1.9203072 -5.8793039 -0.80220211 1584.5 29.5
1.9752429 -5.8733244 -0.80163884 1467 31.5
2.5747879 -5.8673887 -0.80391592 1585 52
2.6256464 -5.8795037 -0.80590099 1526.5 53.5
2.684535 -5.8738756 -0.8054083 1510 55.5
2.7265856 -5.8642983 -0.80426699 1401 57
2.7741134 -5.8665986 -0.80484104 1398 58.5
3.3633602 -5.8500328 -0.80555493 1417 77
3.4314852 -5.8510132 -0.80604863 1442 79
2.8234768 -5.838376 -0.80109 1383 60.5
3.070899 -5.8258309 -0.80059612 1584 68.5
3.1730826 -5.8352203 -0.80246127 1633.5 71.5
3.2284017 -5.8467646 -0.80438846 1575 73
3.2738659 -5.8390408 -0.80352825 1536 74.5
3.3260529 -5.843184 -0.80438823 1548 76
3.3847604 -5.8281221 -0.80255485 1516 78
3.4790401 -5.8447995 -0.80541372 1429.5 80.5
3.5146313 -5.8177013 -0.80175084 1358 82
1.7738994 -5.71099 -0.80723977 1662 26
1.8137906 -5.7071724 -0.8068856 1563 27.5
1.8710884 -5.7149258 -0.80832529 1525 29.5
1.909035 -5.7038641 -0.8068946 1529 31
2.5972018 -5.7041955 -0.81052715 1449 55
1.4166994 -5.6776419 -0.80047053 1736 13
1.6157873 -5.6771531 -0.80143541 1665 20.5
1.6738424 -5.6930184 -0.80407321 1705.5 22.5
1.7238908 -5.6787963 -0.80224025 1643 24.5
1.9347941 -5.6979146 -0.80615294 1514 32
1.9740102 -5.6906466 -0.80528724 1550 33.5
2.0240073 -5.6738396 -0.80307353 1561.5 35.5
2.0756507 -5.6617432 -0.80156183 1663 37.5
2.1285472 -5.6529217 -0.80053872 1668 39.5
2.1848483 -5.652916 -0.80083108 1656.5 41.5
2.2338469 -5.6704297 -0.80366439 1724 43
2.2723994 -5.6592946 -0.80222601 1686.5 44.5
2.3309755 -5.6625023 -0.80300319 1640 46.5
2.3827178 -5.6838789 -0.80641943 1634 48
2.4294603 -5.6914759 -0.80778122 1590.5 49.5
2.4722056 -5.6886854 -0.80759305 1629 51
2.5186813 -5.6942201 -0.80864984 1540 52.5
2.5629928 -5.6939631 -0.80884272 1417 54
2.632699 -5.682951 -0.80758464 1343.5 56.5
2.6835799 -5.6627331 -0.80487353 1407 58.5
2.735369 -5.6769695 -0.80723888 1483 60
3.1805921 -5.6624088 -0.80741417 1481.5 74.5
3.2414336 -5.684967 -0.81105167 1423 76
3.2693894 -5.6765795 -0.80996257 1433 77
3.3169098 -5.673656 -0.80977964 1360.5 78.5
3.3789971 -5.666779 -0.80909073 1391 80.5
3.4309802 -5.6703043 -0.80988032 1338 82
3.4549692 -5.654192 -0.80763346 1277 83
3.5272958 -5.6624389 -0.80922413 1413 85
3.7461009 -5.6813936 -0.81315386 996 91
2.7473931 -5.6377382 -0.80152649 1447 61
2.8197541 -5.630322 -0.80081159 1607 63.5
3.065721 -5.6262498 -0.80149305 1649.5 71.5
3.122031 -5.6428528 -0.80423039 1571 73
3.4859977 -5.6499028 -0.80716366 1335 84
3.5455515 -5.6366062 -0.80551648 1520 86
3.5809603 -5.6112556 -0.80196911 1397 87.5
1.3770117 -5.5008416 -0.80174452 1824 13
1.4040054 -5.5068641 -0.80280185 1737 14
1.5322129 -5.5043893 -0.80309331 1657 19
1.5766305 -5.5251517 -0.80648488 1652 20.5
1.6235468 -5.5055814 -0.80375069 1633 22.5
1.7329819 -5.5208087 -0.80663872 1578 26.5
1.7844173 -5.5155606 -0.806108 1626 28.5
1.8254638 -5.5192475 -0.8068831 1524 30
1.8652797 -5.5183687 -0.80695677 1609.5 31.5
1.9196793 -5.5203743 -0.80754554 1615.5 33.5
1.9702549 -5.5101533 -0.80625349 1714 35.5
2.035723 -5.5032873 -0.80554968 1795 38
2.0798068 -5.512105 -0.80712152 1778 39.5
2.1257615 -5.5252743 -0.80936539 1753 41
2.1619687 -5.5111523 -0.80740464 1722 42.5
2.2150033 -5.5047626 -0.80670857 1751 44.5
2.2798314 -5.5278249 -0.81055653 1660.5 46.5
2.3176751 -5.5168848 -0.80908865 1560 48
2.3651829 -5.5294952 -0.81125557 1555.5 49.5
2.4206243 -5.5257854 -0.81097984 1509 51.5
2.4699569 -5.5069675 -0.80837286 1489 53.5
2.5160828 -5.5138116 -0.80965495 1487 55
3.3134544 -5.5207925 -0.81487304 1416 81
3.3747263 -5.5142436 -0.81419557 1367 83
3.41886 -5.505703 -0.81312567 1487 84.5
1.3492262 -5.4908328 -0.80007631 1813 12
1.425321 -5.4887109 -0.80014992 1705 15
1.4509559 -5.4887357 -0.80028731 1776 16
1.5049738 -5.498981 -0.80212814 1693 18
1.6730802 -5.4956112 -0.80249143 1592.5 24.5
2.0055938 -5.4947162 -0.80408812 1746 37
2.5356185 -5.4924951 -0.8065123 1466 56
2.5766089 -5.4870386 -0.80589545 1475.5 57.5
2.6231427 -5.4614658 -0.80224568 1549 59.5
2.668087 -5.4639187 -0.80285329 1647 61
3.0249913 -5.4567552 -0.80362302 1525 73
3.0745451 -5.462564 -0.80476534 1452.5 74.5
3.132911 -5.4836183 -0.80827409 1401 76
3.1793385 -5.4820652 -0.80827975 1373 77.5
3.2229452 -5.4750066 -0.80743259 1327 79
3.2688086 -5.499332 -0.81137395 1415 80
3.3287961 -5.4915118 -0.81049639 1370 82
3.4738426 -5.4874897 -0.8106401 1594.5 86.5
3.5171993 -5.4769692 -0.80926484 1517 88
3.5687609 -5.4790835 -0.8098554 1613 89.5
3.6065974 -5.4590888 -0.80700928 1525 91
2.7175431 -5.444293 -0.80012393 1698 63
2.9278624 -5.4465308 -0.80156064 1701 70
2.9874408 -5.4438858 -0.80146855 1551 72
3.6322963 -5.4464378 -0.80521774 1468 92
3.6595752 -5.4361601 -0.80379558 1367 93
3.7004688 -5.4464545 -0.80557555 1232 94
3.7633812 -5.4374738 -0.80453652 828 96
1.3189991 -5.3525805 -0.80555391 1789 12
1.4211791 -5.3625469 -0.80765343 1702 16
1.8786839 -5.3511572 -0.80824929 1806 34
1.9348353 -5.3618913 -0.81022936 1837 36
1.9760209 -5.366291 -0.81113577 1819.5 37.5
2.0284085 -5.3639307 -0.81103802 1790 39.5
2.086309 -5.3759451 -0.81322849 1799.5 41.5
2.1342297 -5.3959255 -0.81661892 1769 43
2.1680198 -5.3776045 -0.81391537 1676 44.5
2.2169251 -5.3633127 -0.8119241 1637 46.5
2.2768383 -5.376111 -0.8142482 1519.5 48.5
2.3084881 -5.3523712 -0.81068176 1610 50
3.2848942 -5.3581929 -0.81668931 1524 83
1.189253 -5.322228 -0.80010635 1888 7
1.2283515 -5.3334804 -0.80207896 1871.5 8.5
1.2889338 -5.3288059 -0.80166018 1865 11
1.3410933 -5.3405623 -0.80378008 1816 13
1.3795536 -5.3454351 -0.80474663 1738 14.5
1.4403334 -5.3386059 -0.80399019 1688 17
1.4770558 -5.3351192 -0.80363369 1692.5 18.5
1.5293595 -5.3426886 -0.80509627 1634 20.5
1.5782405 -5.3364143 -0.80436504 1653.5 22.5
1.6150572 -5.3320341 -0.80386847 1743 24
1.6755872 -5.3211308 -0.80247045 1694.5 26.5
1.726696 -5.3211308 -0.80273694 1754.5 28.5
1.778708 -5.3229985 -0.80330181 1738.5 30.5
1.8156215 -5.3172674 -0.80259347 1771 32
1.8519548 -5.3493419 -0.80782455 1779 33
1.9042054 -5.3490939 -0.80805808 1797 35
2.3344054 -5.3483109 -0.81017876 1491 51
2.3763843 -5.3492641 -0.81054753 1547.5 52.5
2.4263434 -5.3358488 -0.80869943 1522.5 54.5
2.4760203 -5.3215356 -0.80670869 1572.5 56.5
2.5252497 -5.3058534 -0.80450046 1659.5 58.5
3.0722911 -5.3139558 -0.80862713 1404 77
3.1213665 -5.3192186 -0.80971032 1443 78.5
3.1607692 -5.306931 -0.80798441 1388 80
3.2253509 -5.3375316 -0.81313109 1439 81.5
3.3234146 -5.3426108 -0.81444097 1645.5 84.5
3.3801305 -5.3302922 -0.81280053 1619 86.5
3.4292705 -5.3313317 -0.81322014 1709 88
3.4628251 -5.332901 -0.81364185 1636 89
3.5180955 -5.3424053 -0.81542403 1655 90.5
3.5744052 -5.3269076 -0.81328171 1610 92.5
3.6355529 -5.343708 -0.81624138 1460 94
3.6618919 -5.332571 -0.81462824 1463 95
2.575839 -5.292871 -0.80272377 1748.5 60.5
2.6272051 -5.2812214 -0.80116045 1793.5 62.5
2.6829286 -5.2779679 -0.80093968 1785.5 64.5
2.7266438 -5.2789621 -0.80132401 1817 66
2.7702932 -5.2791271 -0.80157757 1771 67.5
2.8342896 -5.2898655 -0.8035993 1699 69.5
2.8826163 -5.2975764 -0.80506325 1528 71
2.9262807 -5.2956753 -0.80499226 1467.5 72.5
2.9815183 -5.2868228 -0.80388886 1429 74.5
3.0296466 -5.2919974 -0.80495322 1455 76
3.6644294 -5.2859311 -0.8073104 1137 96
1.2400886 -5.2129612 -0.80829233 1856 10
1.2773677 -5.217556 -0.80923116 1807.5 11.5
1.326148 -5.2188187 -0.80969036 1740 13.5
1.3838995 -5.2058697 -0.80789417 1673 16
1.468714 -5.2027183 -0.80782628 1707.5 19.5
1.8189781 -5.204812 -0.80999368 1838 33.5
1.882953 -5.2052588 -0.81039995 1916 36
1.9244349 -5.2137251 -0.81198788 1886 37.5
1.9823279 -5.2308955 -0.81507164 1838 39.5
2.0366874 -5.2368145 -0.81631422 1739 41.5
2.0862694 -5.2287712 -0.81527001 1617.5 43.5
2.1239479 -5.2237225 -0.81464875 1652 45
2.1688862 -5.2367783 -0.81699836 1613.5 46.5
2.2130885 -5.2137785 -0.81350327 1573 48.5
2.277463 -5.207231 -0.81277859 1549 51
3.3827059 -5.2013021 -0.81758684 1684 89
3.5482712 -5.2072401 -0.81941295 1491 94
3.5778701 -5.202261 -0.81876081 1384 95
1.0889035 -5.1744866 -0.8012706 2020 4
1.1268291 -5.1864271 -0.80340278 1937.5 5.5
1.1751552 -5.1895318 -0.80415797 1917 7.5
1.2131307 -5.199439 -0.80596113 1857 9
1.358097 -5.1997967 -0.80677563 1714 15
1.4169574 -5.1917481 -0.8057791 1696 17.5
1.4954036 -5.1647205 -0.8018102 1802 21
1.5317333 -5.1632452 -0.80176085 1835.5 22.5
1.5656998 -5.152988 -0.80027652 1833 24
1.6280341 -5.1554389 -0.80099893 1847 26.5
1.688862 -5.1515164 -0.80068094 1921 29
1.739437 -5.153708 -0.80129993 1939 31
1.7736847 -5.1823792 -0.80612332 1854 32
1.851113 -5.1866274 -0.80721563 1828 35
2.2427628 -5.1881814 -0.80951148 1564 50
2.2981777 -5.1923642 -0.81047833 1598 52
2.337059 -5.1885338 -0.8100608 1627.5 53.5
2.384284 -5.1722875 -0.80767548 1697 55.5
2.4177537 -5.1556697 -0.80515814 1754 57
2.4882846 -5.160111 -0.8062458 1782 59.5
2.5304558 -5.1616426 -0.80671394 1816 61
2.5558109 -5.156517 -0.80601597 1897 62
2.6086798 -5.1503553 -0.8052938 1837 64
2.6972129 -5.1582718 -0.80703831 1782 67
2.7217991 -5.1505947 -0.80592299 1663 68
2.7701869 -5.1612864 -0.80790746 1633.5 69.5
3.0462248 -5.1558785 -0.80847228 1552 79
3.1228144 -5.1576633 -0.80916113 1640.5 81.5
3.1961889 -5.1525192 -0.80871081 1693 84
3.2317629 -5.1603475 -0.81016463 1704 85
3.2812164 -5.1649323 -0.81116545 1712.5 86.5
3.3429117 -5.1884618 -0.81529909 1674 88
3.4254236 -5.1929436 -0.81645584 1664 90.5
3.4760857 -5.1694536 -0.82606882 1582 92.5
3.5029807 -5.1880169 -0.81606251 1611 93
1.9264179 -5.1058402 -0.82056993 1739 39
1.9520205 -5.1063218 -0.82078415 1753 40
2.0019698 -5.103209 -0.82052499 1669 42
2.1057138 -5.1047688 -0.82132751 1594 46
2.4376872 -5.1393585 -0.80261987 1720 58
2.5687687 -5.125402 -0.80104321 1877 63
2.6262181 -5.12887 -0.80190486 1804 65
2.6616263 -5.1436749 -0.80448794 1835 66
2.7903974 -5.1172385 -0.80087751 1535 71
2.8333704 -5.1441183 -0.80545622 1523 72
2.8761151 -5.1425047 -0.8054179 1513 73.5
2.9180143 -5.1388488 -0.80504435 1600 75
2.9671888 -5.1478195 -0.80675423 1546 76.5
3.0117266 -5.1477923 -0.80698222 1528 78
3.0670364 -5.1397352 -0.80596578 1561 80
3.1597352 -5.1427794 -0.80694276 1634 83
3.4283268 -5.1184125 -0.83051616 1646 92
3.5671356 -5.1371098 -0.80815065 1394 96
1.0461401 -5.0666299 -0.80941993 1978 3
1.0807941 -5.0657716 -0.80945754 1950 4.5
1.1301365 -5.0799336 -0.81208163 1885.5 6.5
1.1741886 -5.0665789 -0.81008035 1820.5 8.5
1.2232101 -5.076479 -0.81199062 1793.5 10.5
1.2701237 -5.075326 -0.81204307 1759.5 12.5
1.3173838 -5.0752058 -0.81226975 1735.5 14.5
1.3742886 -5.0650444 -0.81086916 1761.3334 17
1.4185158 -5.0517435 -0.80887777 1788 19
1.7347651 -5.0567431 -0.81136507 1959 32
1.7859904 -5.062223 -0.81254834 1950 34
1.8257602 -5.0694942 -0.81397104 2003 35.5
1.8800061 -5.0815477 -0.81626838 1829.5 37.5
1.9749507 -5.0992584 -0.81972367 1699 41
2.0318341 -5.0802145 -0.81683874 1625.5 43.5
2.0731444 -5.0875168 -0.81827468 1611 45
2.1335206 -5.0766058 -0.81676692 1631.5 47.5
2.1827207 -5.0694733 -0.8158322 1647.5 49.5
2.2171042 -5.0578008 -0.8140614 1687 51
3.2890027 -5.0975342 -0.82629979 1681 88
0.98209739 -5.030736 -0.80308783 2050.5 0.5
1.019509 -5.0473208 -0.80605447 1961 2
1.4403659 -5.0441403 -0.80772144 1841 20
1.4720383 -5.028738 -0.80531329 1896.5 21.5
1.5149086 -5.0110931 -0.80258894 1948 23.5
1.5678737 -5.0286489 -0.80579901 2050 25.5
1.6163106 -5.029119 -0.80613059 1962.5 27.5
1.6648713 -5.0291367 -0.80638725 2034 29.5
1.7046248 -5.0392256 -0.80828065 2022 31
1.7571383 -5.0496874 -0.81030303 1944 33
2.2390959 -5.0477591 -0.81249845 1685 52
2.2790122 -5.0488501 -0.81288928 1733 53.5
2.3283954 -5.040822 -0.81180584 1800 55.5
2.3768246 -5.0300593 -0.81026042 1817.5 57.5
2.4340994 -5.0381575 -0.81191266 1846 59.5
2.4836721 -5.0286674 -0.81058598 1836.5 61.5
2.5303006 -5.0124493 -0.80811965 1874.5 63.5
2.5879145 -5.0184512 -0.80942345 1829 65.5
2.6316159 -5.0231061 -0.81042957 1704 67
2.6711879 -5.0190287 -0.80995488 1609 68.5
2.720376 -5.0059528 -0.80802703 1596 70.5
2.7820215 -5.0160084 -0.81002927 1563.5 72.5
2.8242211 -5.0151749 -0.81011039 1573 74
2.8662915 -5.0135431 -0.81005752 1546 75.5
2.9041071 -5.0038457 -0.8086347 1474 77
3.4320769 -5.0268359 -0.81523412 1490 94
3.4680371 -5.033072 -0.81646395 1372 95
1.0489517 -4.9545527 -0.8158251 1908 4
1.0945479 -4.9549618 -0.81613398 1818 6
1.2085571 -4.9527569 -0.8163504 1796 11
1.7512692 -4.9529572 -0.81922227 1940 34
1.8150206 -4.9610972 -0.82095695 1812.5 36.5
1.8821073 -4.9768534 -0.82402015 1758 39
1.9266943 -4.9629097 -0.82185268 1685.6667 41
1.9738709 -4.9557185 -0.8208614 1724 43
2.0312231 -4.9744649 -0.8243885 1661 45
2.0871339 -4.9557567 -0.82146013 1672.5 47.5
2.9267254 -4.99262 -0.80687714 1572 78
2.9696646 -4.9914603 -0.80690765 1705 79.5
3.0262301 -4.9879909 -0.8066234 1718.5 81.5
3.081969 -4.9822083 -0.80594838 1783.5 83.5
3.1262524 -4.9815474 -0.80606931 1762 85
3.171978 -4.9825864 -0.80648172 1800 86.5
3.2685969 -4.9911022 -0.80840933 1766.5 89.5
3.3136942 -4.989357 -0.80835336 1750 91
0.96371162 -4.9200611 -0.80944157 1984.5 0.5
1.0122998 -4.940145 -0.81315315 1960.5 2.5
1.0680825 -4.935935 -0.81272006 1855 5
1.1241844 -4.9325366 -0.81242824 1823 7.5
1.1712766 -4.9395018 -0.81387353 1780 9.5
1.2307098 -4.9489331 -0.81580794 1728 12
1.2733088 -4.9339266 -0.81344718 1847.3334 14
1.3312786 -4.9348345 -0.81390643 1916 16.5
1.3753507 -4.9255414 -0.81253707 1975.5 18.5
1.4181719 -4.9115887 -0.81035888 2010.5 20.5
1.4986383 -4.9069438 -0.80997992 2068 24
1.5357687 -4.913475 -0.81129849 2150 25.5
1.5840549 -4.9170656 -0.81216908 2103.5 27.5
1.645627 -4.9239779 -0.81368095 2011 30
1.6810416 -4.9223857 -0.81359196 2018.5 31.5
1.7222703 -4.9384084 -0.81656599 1958 33
1.7719456 -4.9420962 -0.8174606 1943 35
1.8453405 -4.9425373 -0.81792015 1719 38
1.996166 -4.9485641 -0.81974626 1699 44
2.0446253 -4.9440761 -0.81922698 1600 46
2.1272473 -4.9293957 -0.81713158 1751 49.5
2.1765962 -4.9254847 -0.81671625 1859.5 51.5
2.2254338 -4.9197426 -0.81598306 1878 53.5
2.2770896 -4.9198713 -0.81627536 1915 55.5
2.3238742 -4.9082141 -0.81451303 1907 57.5
2.3766091 -4.9091349 -0.81494719 1860.5 59.5
2.4401782 -4.9040885 -0.81441081 1854 62
2.5265152 -4.9170179 -0.81708807 1774 65
2.5640059 -4.9110131 -0.81625032 1703 66.5
2.6153135 -4.9050889 -0.81549859 1653.5 68.5
2.654001 -4.9006648 -0.81493926 1669 70
2.7654223 -4.9021735 -0.81578153 1601 74
1.4496418 -4.8987484 -0.80831295 2121 22
1.4726567 -4.8976784 -0.808249 2078 23
1.6139598 -4.8984828 -0.80912626 2118 29
1.7333939 -4.85853 -0.82736385 1856 34.5
1.7915007 -4.8533654 -0.82675278 1803 37
1.9388139 -4.8581181 -0.82836568 1760 43
2.4117072 -4.8997693 -0.8135184 1828 61
2.4744484 -4.8924751 -0.81259066 1893 63.5
2.6766148 -4.8914142 -0.81346488 1653 71
2.7193193 -4.8938975 -0.8141157 1615 72.5
2.7842793 -4.8854899 -0.81300795 1583 75
2.821496 -4.8767433 -0.81169677 1635.5 76.5
2.8519244 -4.8556952 -0.80823219 1783 78
2.9233932 -4.8566856 -0.80877632 1787 80.5
0.93476063 -4.812264 -0.814987 1940 0
0.96763027 -4.8116579 -0.81505156 1925 1.5
1.0223258 -4.8095236 -0.81495953 1820 4
1.0797346 -4.8200235 -0.81712043 1831.5 6.5
1.1239781 -4.818706 -0.81711853 1829.5 8.5
1.1684411 -4.817966 -0.81722009 1854 10.5
1.2335871 -4.8086596 -0.81591189 1903 13.5
1.2818923 -4.8222499 -0.81857276 1993.5 15.5
1.3254435 -4.8153152 -0.81757188 2069.5 17.5
1.3698608 -4.8113298 -0.81709814 2104.5 19.5
1.4166324 -4.815505 -0.81808263 2202.5 21.5
1.4623379 -4.8149815 -0.81822908 2186.5 23.5
1.5306078 -4.8117471 -0.81801313 2112 26.5
1.5830081 -4.8313842 -0.82176685 2204 28.5
1.6312714 -4.8359118 -0.82282168 2053.5 30.5
1.6804919 -4.84232 -0.8242147 1958 32.5
1.7626373 -4.8390961 -0.82407331 1794 36
1.8244222 -4.844245 -0.82530892 1750 38.5
1.8686831 -4.833004 -0.82354873 1714.5 40.5
1.9090163 -4.8437538 -0.82566452 1699 42
1.976244 -4.8277502 -0.82318056 1757.6667 45
2.0341325 -4.8185415 -0.82185173 1844.5 47.5
2.0820456 -4.8145733 -0.82139927 1950 49.5
2.1340432 -4.8197002 -0.8225798 1975 51.5
2.1765256 -4.8016424 -0.81960237 1927.5 53.5
2.229177 -4.8067045 -0.82077491 1925.5 55.5
2.2962189 -4.814189 -0.82245189 1966 58
2.3810406 -4.8025498 -0.82083333 1912.5 61.5
2.4212768 -4.8051558 -0.82150567 1788 63
2.4858027 -4.8030043 -0.82146204 1662.5 65.5
2.5243556 -4.800818 -0.82127637 1627 67
2.5674877 -4.8070974 -0.82261479 1668.5 68.5
2.6191745 -4.8032804 -0.82220882 1659 70.5
2.6603308 -4.8044519 -0.82263184 1659 72
2.8719518 -4.8412671 -0.80585301 1827 79
2.9736269 -4.8446236 -0.80696237 1778.5 82.5
3.0243998 -4.8328967 -0.80520904 1791 84.5
3.0772023 -4.8240676 -0.80396503 1833.5 86.5
3.1340218 -4.8209758 -0.80372977 1862.5 88.5
3.1848757 -4.8309813 -0.80571818 1774 90
3.2180195 -4.8360128 -0.80675769 1804 91
3.2635932 -4.8365574 -0.80708975 1624 92.5
3.3112731 -4.8166442 -0.80391085 1672 94.5
