# .PCD v0.7 - Point Cloud Data file format
VERSION 0.7
FIELDS x y z intensities index
SIZE 4 4 4 4 4
TYPE F F F F F
COUNT 1 1 1 1 1
WIDTH 1234
HEIGHT 1
VIEWPOINT 0 0 0 1 0 0 0
POINTS 1234
DATA ascii
3.6517358 1.7693397 2.7541654 1067 491
3.943918 1.7582532 2.7615471 1326 482
3.9798737 1.7726406 2.7653482 1793 481.33334
4.0304899 1.7724459 2.7699084 1604.5 480
4.055665 1.776383 2.7750483 1659 479.5
4.1168323 1.7609416 2.7928946 1518 478
3.5430999 1.8116711 2.7751415 1860 496
3.5668163 1.8282988 2.7911093 2067 496
3.6064472 1.8389056 2.7772682 1958 494.5
3.9929011 1.8314492 2.7623765 1673 482
4.0132523 1.8183279 2.7569366 1496 481
4.0790596 1.8259485 2.7826924 1345 480
4.1161499 1.820501 2.7879453 1733 479
4.1714973 1.83313 2.7632506 2189 477
3.5878308 1.8529125 2.7986326 2118 496
3.6370091 1.8733528 2.7709112 2095 494
3.6567361 1.8976436 2.7764816 1865 494
4.0204539 1.8709867 2.7633471 1420 482
4.0800819 1.882587 2.7805099 1372 481
3.5834739 1.9487567 2.7619543 1360 497
3.6222579 1.9271646 2.7602892 1804.5 495.25
3.7112949 1.921029 2.750917 1937 492
4.1254034 1.9319615 2.7920694 1950 481
4.3030005 1.9439163 2.7784026 1255 476
3.5810943 1.9813035 2.7716036 1520.25 498
3.6160917 1.9500723 2.7635283 1681 496
4.5904384 1.9788872 2.7662492 768 469
4.6469197 1.9544091 2.7604625 1287 467
4.6628547 1.9789071 2.795063 985 468
4.7073555 1.9940776 2.7865241 610 467
3.5288334 2.0266807 2.7842488 1068.6667 501
3.5682085 2.0079074 2.7729411 1172.25 499
3.6713502 2.0043752 2.7523584 762 495
3.7577243 2.0175698 2.7697289 289 493
3.8055518 2.0088685 2.7573562 1901 491
3.8766155 2.0296214 2.7852442 1290 490
4.2542582 2.0140293 2.7902355 1111 479
4.6628547 2.0198643 2.7649567 1286 468
3.5510573 2.0537355 2.7916501 529 501
3.9861169 2.0865362 2.7518642 1237 487
3.9259875 2.1148901 2.7762904 1332.5 490
3.9831924 2.1159596 2.7637904 1494 488
4.0071487 2.1105847 2.7565618 1056 487
3.9605103 2.1529448 2.7860472 1412 490
4.0363178 2.1701851 2.7809768 1677 488
4.1132874 2.1615629 2.7959177 1449 486
5.1964197 2.178889 2.782418 556.5 459.5
5.2180805 2.1652253 2.791347 379 459
5.2225895 2.2131126 2.7989547 681 460
5.2788029 2.2093644 2.7667356 196 458
5.3266535 2.225843 2.7736077 474 457.5
5.3687763 2.2398186 2.7773249 364 457
4.3128209 2.2838328 2.7562902 1422 482
5.3434215 2.2632928 2.7788959 996 458
4.2844009 2.3019869 2.7504234 1682 483
4.3114567 2.3504651 2.7807336 1648 484
3.5893152 2.5485506 2.7946649 299 510
3.5756974 2.5771599 2.7813172 941.5 510.75
3.4325111 2.6402974 2.7714024 439.66669 516.66669
3.4879208 2.631736 2.766531 1094 514.5
3.5212543 2.6316793 2.7797885 779.66669 513.66669
3.5619621 2.6112928 2.7850583 999 512
3.6922369 2.6259003 2.758842 1579.5 507.5
3.4803815 2.6692669 2.7644858 1416.5 515.5
3.5279236 2.6902988 2.7716899 1676 514.5
3.6706107 2.6509073 2.771683 1061 509
3.4869461 2.7211831 2.7827039 341.5 516.75
3.5158739 2.7181299 2.7723303 964 515.5
3.6334391 2.7846899 2.7708852 303 513
3.5847609 2.8218887 2.7526937 171 515
3.6128995 2.818414 2.777133 204 514.5
4.2005558 2.8924491 2.761445 1234 498
4.233696 2.9604661 2.7866969 1196 499
4.2843494 2.9801013 2.7729814 1253.25 497.75
4.3356609 2.9744265 2.7609267 1262 496
4.2488713 3.0223868 2.7933555 1535 500
4.2641072 3.0135047 2.7725577 1086 499
4.2641902 3.071578 2.7608566 1166.5 500
4.2335067 3.1489499 2.7900472 1549 503
4.2821989 3.1313658 2.7741773 1348.6667 501
4.3133531 3.1406577 2.7551758 1751 500
4.3528361 3.1295125 2.7720544 1502 499
4.2875791 3.1688991 2.7664847 1482.5 501.5
4.3219333 3.2294688 2.7763677 967 502
4.3164911 3.2674623 2.780112 724 503
4.0179577 3.4366617 2.7554579 287.5 514.5
4.0253892 3.4800639 2.7761452 239.5 515.5
4.3329287 3.7321434 2.7786686 301.5 512
2.3423061 11.79739 2.794621 1450 640
2.6156785 11.793279 2.7922106 1376 635
2.7269228 11.797375 2.7925818 1431 633
2.7810278 11.791917 2.7910168 1407 632
3.45556 11.79817 2.7889125 1364 620
3.6771436 11.775289 2.782378 951 616
3.7373104 11.784345 2.7841816 1105 615
3.7961681 11.788455 2.7848334 1218 614
3.8489249 11.77275 2.7808738 1190 613
3.9094028 11.780979 2.7824824 1288 612
3.9672902 11.780568 2.7820797 1210 611
4.0298657 11.793788 2.7848463 1205 610
4.0813942 11.773389 2.7797933 1181 609
4.1454663 11.789735 2.7832849 1266 608
4.2059145 11.79469 2.784126 1254 607
4.2570701 11.772636 2.7786875 1248 606
4.3222399 11.78993 2.7823951 1240 605
4.4424944 11.794176 2.7827539 1166 603
4.5041347 11.799531 2.7836826 1216 602
4.6222138 11.794739 2.7819347 1200 600
4.6781664 11.783725 2.7790575 1168 599
4.7394662 11.786107 2.7792914 1183 598
4.8019571 11.790915 2.7800875 1133 597
5.2328272 11.792599 2.7782018 1146 590
5.9345541 11.79767 2.775677 1068 579
2.3992054 11.808914 2.7970204 1397 639
2.4524541 11.801055 2.7948968 1486 638
2.5093625 11.81112 2.7969544 1377 637
2.5650165 11.814244 2.7973919 1407 636
2.6728189 11.802596 2.7940919 1461 634
2.8406248 11.809977 2.7949333 1387 631
2.8986428 11.820162 2.7970133 1387 630
2.9517829 11.809216 2.794167 1361 629
3.0065048 11.804676 2.7928133 1420 628
3.0633693 11.808412 2.7933879 1382 627
3.1191173 11.807161 2.7927999 1397 626
3.1771157 11.814159 2.7941329 1412 625
3.2349839 11.819947 2.7951829 1448 624
3.2919476 11.821698 2.7952919 1394 623
3.3438296 11.804371 2.790957 1431 622
3.4053111 11.821604 2.7946699 1436 621
3.5153964 11.80829 2.7909675 1380 619
3.5767598 11.82281 2.7940452 1362 618
3.6338561 11.822067 2.7935688 1182 617
4.3873096 11.805974 2.7858105 1214 604
4.5652137 11.802759 2.7841158 1159 601
4.8740835 11.81899 2.7862849 1208 596
4.9284391 11.802326 2.7820921 1173 595
4.9935713 11.811627 2.7839272 1260 594
5.0554786 11.812482 2.7837996 1163 593
5.1193938 11.817536 2.784646 1186 592
5.1776614 11.80879 2.7822883 1223 591
5.3009391 11.805711 2.7809141 1200 589
5.3708553 11.822042 2.7843714 1219 588
5.4277573 11.808568 2.7809126 1220 587
5.4968109 11.821545 2.7835879 1221 586
5.5533791 11.806611 2.7797892 1192 585
5.6194305 11.811821 2.7806604 1162 584
5.6831255 11.811381 2.7802205 1179 583
5.7566185 11.830942 2.7844155 1197 582
5.8171978 11.822775 2.782181 1157 581
5.8790998 11.816958 2.7804904 1102 580
6.008317 11.814931 2.7793314 1158 578
6.0726347 11.812556 2.7784348 1166 577
6.1450567 11.825561 2.7810988 1220 576
6.2163606 11.835564 2.7830656 1223 575
6.2815247 11.833024 2.7821257 1174 574
6.3417554 11.820625 2.7789013 1196 573
6.4075217 11.818315 2.7780118 1187 572
6.4771023 11.822571 2.778641 1201 571
6.5393434 11.81269 2.7759962 1073 570
6.6138973 11.82483 2.7784467 1153 569
6.685349 11.830564 2.7794123 1142 568
6.7444925 11.813694 2.775146 1122 567
6.8181262 11.822126 2.7767322 1153 566
6.8934231 11.832707 2.7788131 1202 565
6.9659925 11.837782 2.7796185 1160 564
7.0322967 11.831464 2.777787 1165 563
7.1061602 11.837468 2.7788033 1077 562
7.1766877 11.837176 2.7783616 1128 561
7.2539306 11.84743 2.7803557 1173 560
7.3242545 11.845522 2.7795365 1161 559
7.388525 11.833213 2.7763116 1096 558
7.4554119 11.82475 2.7739747 1152 557
7.5239253 11.818438 2.7721329 1128 556
7.6061788 11.833323 2.7751858 1155 555
7.6876473 11.846081 2.7777443 1115 554
7.7571197 11.839405 2.7758124 1082 553
7.9103537 11.846278 2.776612 1044 551
7.9747276 11.830266 2.7725191 1109 550
8.0440321 11.821272 2.7700446 1002 549
8.1233234 11.826549 2.7708616 1052 548
8.2116871 11.844348 2.7745652 1039 547
8.2897539 11.846262 2.7746005 1054 546
8.3668661 11.846125 2.7741604 1050 545
8.437911 11.836717 2.7715797 1040 544
8.5152874 11.835745 2.7709424 1031 543
8.5956764 11.838333 2.7711236 975 542
8.6699085 11.831704 2.7691772 1004 541
8.7616358 11.848484 2.7726243 1023 540
8.9172649 11.841721 2.7702157 996 538
9.0002975 11.844369 2.7703969 962 537
9.0817385 11.844185 2.7699227 903 536
9.3318844 11.847033 2.7692664 853 533
9.6693144 11.845817 2.7671957 810 529
11.027685 11.846394 2.7601428 715 514
11.123576 11.846187 2.7595866 716 513
7.8438401 11.858679 2.77987 956 552
8.8501759 11.859962 2.7748454 902 539
9.1842575 11.870883 2.7756367 892 535
9.2529287 11.852537 2.7709742 906 534
9.4292002 11.864294 2.7727964 839 532
9.5133934 11.863987 2.7722788 903 531
9.5928411 11.857041 2.7702308 879 530
9.7738409 11.868516 2.7719622 780 528
9.8499966 11.85556 2.768523 807 527
9.9431887 11.86265 2.7696912 808 526
10.035995 11.868417 2.7705514 792 525
10.111253 11.852546 2.766434 813 524
10.206352 11.859509 2.7675626 734 523
10.294641 11.85767 2.7666643 823 522
10.391494 11.864984 2.7678657 817 521
10.475631 11.856864 2.7655177 728 520
10.582056 11.873383 2.7688253 766 519
10.674409 11.873021 2.7682521 701 518
10.761029 11.865501 2.7660315 736 517
10.849766 11.859661 2.7641933 682 516
10.941313 11.856205 2.7628989 747 515
11.241263 11.868405 2.7641706 620 512
11.346477 11.876236 2.765449 739 511
11.437665 11.868414 2.7631335 646 510
11.530361 11.861463 2.7610137 650 509
11.6349 11.865981 2.7615197 708 508
11.748673 11.878999 2.763968 637 507
11.839883 11.868113 2.7609344 601 506
11.951428 11.876945 2.762414 614 505
12.054173 11.876009 2.7616506 647 504
12.178931 11.895905 2.7656531 567 503
12.273721 11.885298 2.7626655 596 502
12.366514 11.872048 2.7590697 599 501
12.457995 11.856869 2.7550285 628 500
12.598228 11.887442 2.761451 523 499
12.706632 11.886541 2.7606661 547 498
12.817426 11.88697 2.7601802 484 497
12.930636 11.888698 2.7599862 527 496
13.03828 11.884338 2.758395 574 495
13.137361 11.871304 2.7548161 508 494
13.238768 11.859639 2.7515459 482 493
13.38009 11.882944 2.7562594 480 492
13.507818 11.892805 2.7578943 501 491
13.60693 11.876334 2.75351 443 490
13.746397 11.894344 2.7569923 471 489
13.857843 11.886815 2.7546384 425 488
14.233423 11.893667 2.7542565 367 485
14.341956 11.879901 2.7504563 358 484
14.478084 11.888146 2.751668 345 483
14.612258 11.893578 2.7522306 312 482
16.561775 11.888741 2.7994335 233 468
16.701071 11.880606 2.7967489 288 467
17.505762 11.897165 2.7964482 273 462
18.107182 11.857921 2.7838714 231 458
18.661846 11.882168 2.7867348 196 455
14.002531 11.906884 2.7585757 426 487
16.150934 11.924285 2.7512844 263 471
17.351147 11.900979 2.7981799 249 463
18.357841 11.910538 2.7951341 244 457
2.2213547 -4.4270954 2.8024611 304 50
2.2612734 -4.4321284 2.8152671 262 51.333336
2.3269258 -4.42556 2.8401246 653.66669 53.666668
2.2837162 -4.2741528 2.8494172 839 54
2.2219403 -4.2149606 2.841691 1176 52.5
2.2457218 -4.1854906 2.8218544 1594 54
3.7402759 -4.0990696 2.8152883 692 107
3.7588127 -4.0826907 2.803987 735 108
2.7141495 -4.0232506 2.8282156 973 74
2.2455747 -3.9641762 2.8325663 1367.5 57
2.7093496 -3.961117 2.8128839 1627 75
4.6639271 -3.9112175 2.8216717 675 136
4.7055421 -3.9256282 2.8041859 311 137
2.672359 -3.8653791 2.8294539 790 75
2.8594508 -3.8743103 2.8065846 433 82
4.690763 -3.8801413 2.8178918 1037 137.33334
4.7394781 -3.8605983 2.8128181 748 139
2.5392039 -3.8156254 2.8088188 691 71
2.5710349 -3.8037851 2.8440087 723 72
2.6299493 -3.8274643 2.8316813 1339 74
2.5366805 -3.7908564 2.8346379 238 71
2.5657451 -3.7894282 2.8041692 1010 72.5
4.7408376 -3.7777138 2.8246644 1072.5 140.5
4.7616491 -3.7716527 2.8338182 1176 141
3.7756078 -3.7059822 2.8267562 1235 115.33334
4.9614205 -3.721205 2.8212547 303 147
3.7936196 -3.6932323 2.8355722 1462 116
3.9300158 -3.6508234 2.8292685 621 121
3.9242291 -3.6133373 2.8003871 1561 122
4.9220524 -3.6264501 2.8181841 141.5 148
3.8800774 -3.5897512 2.8105488 1001 121
3.9273658 -3.587553 2.8182638 1685.3334 122.33334
4.8893919 -3.5502722 2.8020144 400 149
4.9200134 -3.5591266 2.8374853 256 149
5.1562357 -3.4127557 2.8002505 465 158
5.1207323 -3.3681815 2.8063564 498 158
5.1965184 -3.3527815 2.8071318 290 160
5.2910075 -3.3714876 2.8499494 171 161
5.1320643 -3.326175 2.8127437 267 159
5.1904297 -3.3353677 2.8201153 1012 160
5.2085066 -3.3047829 2.8211625 928 161
5.0701795 -3.1762111 2.8488526 141 160
5.2211881 -3.1595795 2.8329003 211 164
5.2211881 -3.146172 2.848103 465 164
2.9719477 -2.7004354 2.8154085 601 108
0.86530274 -2.6664252 2.8496745 1497 6
1.086817 -2.657166 2.8121719 1132 19
2.9201508 -2.6621535 2.8037159 155 107
0.85187417 -2.6058908 2.8124418 988 6
0.90101379 -2.5844252 2.8162086 1449 9
1.148415 -2.5803425 2.8354552 1266 23
0.92569864 -2.5142887 2.8199801 1471 11
0.79677868 -2.4500611 2.8040693 1214 4
0.97345996 -2.4903762 2.8206928 163.33334 14
2.3806901 -2.3766885 2.8424861 1151 89
1.24842 -2.3171375 2.8078313 145 32
2.3669095 -2.3196769 2.8155622 803.5 90
1.2267754 -2.2945876 2.8082602 280 31
1.6442735 -2.2013788 2.8019876 348 56
2.3478618 -2.2236352 2.8107774 1290.5 91
2.3670404 -2.2015367 2.8235323 1500 92
5.1402712 -2.2407746 2.8092251 518.5 181
1.6420697 -2.1893883 2.8229861 667.33337 55.666668
1.6549292 -2.1709442 2.8306022 459.5 56.5
2.3894792 -2.1893177 2.8345594 1382 93
2.4100604 -2.1816583 2.8380153 682.5 94
2.1091068 -1.8018568 2.8069236 1305 87
2.5442133 -1.802925 2.8195214 1048 107.5
1.7882888 -1.7590382 2.8325584 1438 70
1.8058107 -1.7720282 2.8228865 1156.5 71
1.9624444 -1.7655531 2.8257818 898 79.5
2.0331085 -1.7608027 2.8175049 1723.5 83.5
2.096818 -1.7947212 2.8260412 1018 86
2.1330161 -1.7920475 2.8214958 889.33337 88
2.1593659 -1.7806585 2.8033602 178 90
2.5453956 -1.7904414 2.8295593 1198 107.5
2.5733144 -1.7752508 2.8304257 1104.1667 109
0.93892312 -1.7296441 2.8239965 915.5 18.75
0.95366919 -1.7347425 2.8017063 612 20
1.7707722 -1.7231143 2.8284948 1170 69.666664
1.8039222 -1.7117448 2.8155129 283 72
1.9709535 -1.7404462 2.822829 2007.5715 80.428574
2.0119243 -1.7466384 2.8418038 1959 82
2.6459668 -1.7122427 2.8079979 650 114
2.6551714 -1.7125888 2.8388691 653 113.5
0.97836035 -1.6844496 2.8177676 698.85718 21.857143
2.6616745 -1.6882436 2.8292005 470.5 114.5
9.1467466 -1.6716632 2.8286119 280 243
9.1072025 -1.6495786 2.8253608 330 243
9.1918869 -1.642866 2.8127003 288 244
2.0603034 -1.4053001 2.8034706 1243 91
2.0708845 -1.3766537 2.8241045 1142.875 91.375
2.2302861 -1.3182614 2.8084755 814 101
3.6832545 0.93733406 2.8309209 360 479
3.7317009 0.94826227 2.8413422 177 478
3.6864331 0.96934307 2.8295381 396.75 479.25
3.7122889 0.96252632 2.8197513 476 478
3.6948605 1.000107 2.8190067 262 479
5.0434203 1.0366945 2.8131354 691 445
3.418535 1.0843934 2.8406909 294 490
3.3466988 1.1083256 2.8170302 489 492
3.3822558 1.1235492 2.8218336 886.14288 491.14288
3.4118531 1.1172713 2.821054 713.5 490
3.4564247 1.1201694 2.8066556 324 488
3.2280722 1.1732391 2.8106856 195 497
3.2656066 1.1837633 2.8167033 261.33334 496
3.3249927 1.1958249 2.8440683 442 495
3.3941109 1.1525 2.8317945 467.5 491.5
3.4182897 1.1699419 2.8198409 352 490.5
4.9420447 1.1643494 2.8214688 1785 449
3.2405057 1.2201958 2.8320429 388 498
3.2892785 1.2180464 2.8263683 549 496
3.3225534 1.2290506 2.8270221 951.5 495
3.3681381 1.2267864 2.8458061 340 494
3.4416428 1.2172203 2.8224339 379.5 490.5
3.4655285 1.2334999 2.8243473 854.66669 490
4.6332912 1.2036409 2.8083801 1335 456
4.7898378 1.2492197 2.8060112 1292 453
3.2850587 1.2922629 2.8467875 1054 498
3.3218875 1.2642214 2.8396657 1500 496
3.3717656 1.2689098 2.8306143 1542.2001 494
3.4138267 1.2738023 2.8223989 1436.3334 492.33334
3.4793715 1.2568958 2.8275371 1363.3334 490
3.3817055 1.3347936 2.8246782 759.5 494.5
3.4088988 1.3171179 2.8364887 1580.6667 493.66669
3.4582095 1.3244326 2.8140686 2116.6667 491.33334
4.6708412 1.3197244 2.8141413 617 457
3.4242125 1.3613985 2.8258872 672 493.5
3.4817343 1.3736748 2.8339462 825 492
3.5111554 1.3666788 2.819052 1254.8 490.39999
3.4852023 1.4195112 2.8347507 1228 492.66669
3.5173421 1.4235845 2.8198276 1092.3334 491.16669
5.0010171 1.4198834 2.8413796 184 452
3.5338862 1.4632626 2.8187013 420.25 491.25
3.4810028 1.6394931 2.8465691 253 497
3.6162801 1.6329637 2.8177114 350.5 491.5
3.6820984 1.6489264 2.8286383 1289 490
3.9679308 1.6186755 2.8376658 1454 481
3.4129493 1.6691741 2.8177962 1064 499
3.4728754 1.6633663 2.8396854 572 497.5
3.6628208 1.658675 2.8244486 1039 490.66669
3.4341221 1.7302805 2.8379128 1144 500
3.4704578 1.7455891 2.8029017 1148 498
3.5909791 1.7466215 2.8033864 1302 494
3.8953462 1.7154335 2.8415482 635 485
3.4662585 1.7584524 2.8236442 1343 499
3.5621424 1.7892354 2.8287139 563.5 496.5
4.0859985 1.7913823 2.8124003 1462 480
4.164197 1.7946769 2.8168416 1785 478
4.3995242 1.787182 2.8319535 1839 472
3.5336945 1.8295184 2.821363 1960 498
3.5641038 1.8172692 2.8299131 1606.8 497
4.1572089 1.8042454 2.8038039 1842 478
3.5602827 1.8565052 2.8343062 2048 498
3.6218393 1.8856754 2.8330903 1777.5 496.5
4.2873616 1.8548539 2.8249359 1352 476
3.6487007 1.9403557 2.808558 1771 496
3.6753521 1.9101824 2.8245206 1880.5 495
4.6508069 1.9459929 2.8076365 1405 468
3.563756 1.9813135 2.8235121 1188.5 500
3.6253161 1.9819744 2.8239141 1627 498
3.6635747 1.9791689 2.8347051 1531 497
4.6755314 1.9721859 2.8304358 1092 468.5
4.7627048 1.9807929 2.8271341 842 466.5
3.5310707 2.0401134 2.8328378 1260 502.5
3.5704029 2.0190141 2.8319063 999.5 500.75
3.768522 2.0410235 2.8018548 553 494
4.3161554 2.0304594 2.841043 1323 479
4.8028879 2.0030038 2.8279848 456 466
3.5251694 2.0707557 2.8213556 605.79999 503
3.5671935 2.0942762 2.8188264 447 502
3.9619951 2.0894835 2.8366659 780 490
4.0009713 2.0923102 2.840169 767 489
3.5384824 2.1233907 2.8172951 1226 503.5
3.9272013 2.120857 2.824168 654 491.33334
3.977011 2.1082568 2.8202243 906 489.5
3.9652846 2.1616395 2.8236499 1002 491
4.0677447 2.1745353 2.813097 1288 488
5.2170644 2.1684661 2.8086972 346.5 459.5
5.2047143 2.2257597 2.8151622 547 461
3.6357057 2.5469921 2.8191183 178 509
3.5709751 2.5849299 2.8349278 886 512.25
3.6119585 2.5807447 2.8430996 413.5 511
5.2698126 2.5775113 2.8402767 250 467
3.5438709 2.6118755 2.8257928 500.5 513.5
3.5735979 2.6220474 2.8230357 771.66669 512.66669
3.5891149 2.6683412 2.8178351 1551 513
3.4714117 2.7289057 2.8258686 303.66669 518.33337
3.4934402 2.7529037 2.8218455 290 518
4.223577 2.9457533 2.8396196 1569 500
4.2233744 2.98083 2.8190048 1577 500.33334
4.2698317 2.9530954 2.8463516 1377 499
4.3216991 2.9652054 2.8033319 953 497
4.0896406 3.0288014 2.8130128 445 505
4.1191301 3.0121322 2.8230715 1082 504
4.2519808 3.0446689 2.8265684 1188 501
4.3106189 3.0346467 2.8168747 1285 499
4.1363416 3.0768142 2.8315532 330 505
4.2731209 3.0722721 2.8093276 1043.3334 500.66669
4.2377276 3.1459179 2.8277192 897 503.5
4.2750821 3.1199954 2.8175669 993.25 501.75
4.3094454 3.1385775 2.8070331 735 501
4.2243171 3.1697273 2.8354077 1111 504.5
4.2707796 3.1506059 2.845356 908 503
4.2492599 3.2161477 2.8493061 1287 505
4.2768974 3.2299647 2.819726 1351 504
4.435904 3.2455075 2.8182399 1228 500
4.3551707 3.2834575 2.8219244 1491 503
4.403091 3.2633989 2.8044083 999 501
4.3271971 3.321568 2.8374317 1116.2001 504.80002
4.222928 3.3799074 2.8466449 134 509
4.3336725 3.3763454 2.8334408 612.33337 505.66669
4.3677549 3.3930998 2.8282921 234 505
3.9776258 3.4429569 2.8294749 246 517
4.2770686 3.4154363 2.8332825 303 508
4.316947 3.4182403 2.8353415 314 507
4.3590164 3.4293773 2.830143 220 506
3.9839172 3.4690561 2.8083332 204 517
4.0157652 3.4670591 2.8065126 274 516
4.0596347 3.4754138 2.8129575 292 515
4.312407 3.7267482 2.8164716 235 513
4.3375912 3.7689476 2.8059149 302 513
3.6962469 10.889525 2.8495498 617 611
3.802321 10.882874 2.8472581 665 609
3.9130313 10.888098 2.8480253 603 607
3.9646318 10.879329 2.845474 628 606
4.0797906 10.893976 2.8486633 545 604
4.3552456 10.887623 2.8455479 622 599
4.4741182 10.903856 2.8491294 531 597
3.6852269 11.035583 2.8296952 397 612
3.8488333 11.033699 2.828346 403 609
3.75003 11.066612 2.8372431 442 611
3.8037832 11.063173 2.8360825 415 610
3.9158292 11.068439 2.8368263 389 608
3.9726334 11.072514 2.8375604 401 607
4.0266247 11.068064 2.8361416 360 606
4.0776906 11.055126 2.8325796 414 605
4.1430249 11.081283 2.8388851 365 604
4.2073216 11.103445 2.8441806 361 603
4.2654138 11.107957 2.8450191 361 602
4.4928718 11.107792 2.8437681 361 598
4.5568914 11.124479 2.8476722 371 597
4.6120057 11.118273 2.8458006 403 596
4.6708436 11.12082 2.8461359 375 595
4.8418918 11.112403 2.8430855 372 592
4.8983879 11.107563 2.8415542 342 591
4.9631147 11.121211 2.8446813 336 590
5.0245094 11.126498 2.8456998 334 589
5.210742 11.14317 2.8489501 299 586
5.2714667 11.144561 2.8489811 263 585
5.7021213 11.151026 2.8483362 330 578
3.6911097 11.237768 2.8250191 371 613
3.8029017 11.240444 2.8250926 327 611
4.1976066 11.244332 2.8239665 394 604
3.7625496 11.287391 2.8370137 356 612
3.865694 11.26171 2.8300622 431 610
3.920006 11.256835 2.8285582 357 609
3.9835184 11.278421 2.8336036 352 608
4.0325556 11.257383 2.8280973 333 607
4.1009517 11.291237 2.8361757 366 606
4.1552625 11.284384 2.8341787 365 605
4.2683048 11.281826 2.8329403 410 603
4.4465566 11.297379 2.8358724 424 600
4.6741443 11.284843 2.831538 342 596
4.3394175 11.318933 2.8418159 387 602
4.3954105 11.314653 2.8404515 347 601
4.5149393 11.324388 2.8422441 330 599
4.5815029 11.345591 2.847178 344 598
4.8670201 11.32409 2.8403003 367 593
4.9258676 11.322754 2.8396547 382 592
4.977078 11.30322 2.8345118 322 591
5.0496407 11.33264 2.8414626 304 590
5.1036582 11.318826 2.8377311 342 589
5.1663961 11.324366 2.8387792 357 588
5.2236533 11.317143 2.8366742 340 587
5.3534179 11.334654 2.8403518 277 585
5.4191842 11.344234 2.8423913 358 584
5.8501983 11.333693 2.8374741 337 577
4.6429176 11.352869 2.8486667 381 597
4.7606516 11.352979 2.848069 347 595
4.8187132 11.350358 2.8471072 386 594
5.3000121 11.351354 2.8447998 336 586
5.5567513 11.373811 2.8490365 275 582
5.8005414 11.360439 2.8444076 270 578
6.0012155 11.380215 2.848273 308 575
6.5289454 11.391534 2.8482933 288 567
3.9214447 11.442647 2.8148108 447 610
3.7008924 11.458775 2.8199174 353 614
3.8128994 11.456774 2.8188348 505 612
3.8770437 11.479923 2.8241456 461 611
3.990243 11.478153 2.8231132 406 609
4.1652169 11.486864 2.8243115 507 606
3.7756324 11.516857 2.8336995 450 613
4.062911 11.523437 2.833782 517 608
4.11555 11.5094 2.8300762 503 607
4.2285619 11.502676 2.8278356 457 605
4.296452 11.530084 2.8341658 405 604
4.348156 11.512296 2.8295496 473 603
4.4055767 11.509821 2.8286407 467 602
4.4654717 11.513463 2.8292122 458 601
4.5261779 11.518637 2.8301532 513 600
4.5905466 11.532608 2.8332224 540 599
4.6604838 11.559869 2.8395059 512 598
4.7217145 11.564098 2.8402138 475 597
4.7779512 11.555364 2.8377833 484 596
4.8401103 11.560822 2.8387861 468 595
4.897922 11.555156 2.8370962 478 594
4.9746566 11.594216 2.8462243 367 593
5.0304556 11.582537 2.8430772 439 592
5.0885563 11.575986 2.8411701 532 591
5.1544862 11.587064 2.8435245 497 590
5.2202158 11.59691 2.8455796 460 589
5.284935 11.603743 2.846904 483 588
5.3478036 11.605798 2.8470724 461 587
5.5354433 11.606541 2.8462584 431 584
5.6050158 11.620593 2.8493199 527 583
5.9221444 11.6171 2.8467853 508 578
6.4578171 11.637661 2.8489635 527 570
3.7097404 11.682001 2.8180501 662 615
3.8261688 11.688317 2.8189449 677 613
4.1166825 11.692866 2.8184943 691 608
3.7731504 11.702048 2.8225112 670 614
3.8908215 11.71056 2.8239245 740 612
3.9487548 11.711156 2.8237603 766 611
4.0083046 11.716111 2.8246305 791 610
4.0648499 11.71154 2.8232372 783 609
4.183804 11.718216 2.8242044 753 607
4.2398682 11.711007 2.8221824 759 606
4.3012033 11.718247 2.82359 779 605
4.3570237 11.709593 2.8212235 772 604
4.4172254 11.712597 2.8216233 721 603
4.4754877 11.709823 2.8206508 765 602
4.533462 11.705864 2.8193965 831 601
4.6009111 11.726254 2.8239181 802 600
4.6590877 11.721716 2.8225241 761 599
4.7201672 11.724176 2.8227892 806 598
4.787499 11.741764 2.8266411 770 597
4.8477654 11.740891 2.8261125 790 596
4.9029384 11.72707 2.8225131 783 595
4.9696589 11.740983 2.825489 877 594
5.2148991 11.738525 2.8236017 868 590
5.2812505 11.748123 2.8255467 877 589
5.3378396 11.735063 2.8221219 832 588
5.4016418 11.737783 2.8224349 866 587
5.9172144 11.749752 2.8225675 773 579
3.628001 11.789521 2.8442111 1072 617
3.6811059 11.77548 2.84057 671 616
5.0964913 11.75069 2.8271401 757 592
5.1614609 11.758214 2.8285959 790 591
5.4830151 11.778428 2.8317294 818 586
5.5460033 11.777774 2.8312392 864 585
5.6066051 11.771493 2.8294153 837 584
5.6685061 11.767575 2.8281498 879 583
5.7384872 11.780119 2.8307805 819 582
5.7929382 11.759712 2.825609 880 581
5.8610573 11.767186 2.8270366 850 580
5.999568 11.784571 2.8304627 845 578
6.064249 11.783112 2.8297708 790 577
6.1285825 11.780454 2.8287942 860 576
6.1894112 11.770519 2.8260946 921 575
6.2493582 11.758557 2.8229148 948 574
6.3294187 11.784398 2.8286738 827 573
6.3996882 11.790781 2.829829 883 572
6.459909 11.777833 2.8264117 870 571
6.5950022 11.777666 2.8256562 885 569
6.7435327 11.799149 2.8300097 852 567
6.9473157 11.792717 2.8273909 832 564
7.6654286 11.79854 2.82498 918 554
3.3482125 11.807439 2.8499806 1347 622
6.5482454 11.816183 2.8351204 899 570
6.688683 11.823696 2.836174 828 568
6.8161907 11.805874 2.8312337 886 566
6.8841567 11.803708 2.8303556 884 565
7.0273438 11.810158 2.8311405 795 563
7.0961785 11.807746 2.8301988 837 562
7.1711564 11.815069 2.8315537 901 561
7.2417717 11.814428 2.8310263 774 560
7.3053699 11.801696 2.8276427 873 559
7.378757 11.804508 2.8279269 857 558
7.4512691 11.805257 2.8277218 871 557
7.5432243 11.836337 2.8346717 854 556
7.6119576 11.829595 2.8326943 831 555
7.7485962 11.813384 2.8280914 828 553
7.8207746 11.810496 2.827018 675 552
7.8887501 11.800667 2.824306 787 551
7.9779902 11.822341 2.8290195 898 550
8.050601 11.818232 2.8276515 890 549
8.1332426 11.82835 2.8296347 802 548
8.2155704 11.837181 2.8313117 948 547
8.2908707 11.835041 2.8304007 830 546
8.3679895 11.834902 2.8299587 882 545
8.4362144 11.821486 2.8263874 812 544
8.5084591 11.813322 2.8240509 798 543
8.5968218 11.82711 2.8268821 820 542
8.6722136 11.822075 2.825278 838 541
8.7645359 11.839622 2.8289878 757 540
8.8280067 11.817083 2.8232582 790 539
8.9102211 11.819448 2.8233883 800 538
8.9973459 11.827624 2.8248835 779 537
9.0912428 11.8439 2.8282804 750 536
9.1681261 11.836967 2.8262141 775 535
9.2517281 11.838162 2.8260572 756 534
9.5017776 11.836525 2.8243408 742 531
9.5848494 11.834246 2.8233552 737 530
9.6810608 11.847552 2.8260298 653 529
9.7589207 11.837392 2.8231862 662 528
9.8537483 11.847312 2.8250573 736 527
9.9425602 11.849079 2.8250096 700 526
10.025253 11.842772 2.8230624 722 525
10.205075 11.845208 2.8226926 733 523
10.85109 11.848334 2.8200183 631 516
10.945969 11.848514 2.8195584 624 515
11.04172 11.848834 2.819128 668 514
11.530361 11.84869 2.8165047 541 509
11.630087 11.848257 2.8158731 553 508
9.3482037 11.855159 2.8296132 805 533
9.4304161 11.853011 2.8286638 739 532
10.122052 11.85253 2.8248844 710 524
10.305555 11.85756 2.8251162 658 522
10.394075 11.855154 2.8240714 656 521
10.481468 11.850739 2.8225517 750 520
10.587923 11.867216 2.8259306 694 519
10.682927 11.869776 2.8260398 719 518
10.76037 11.851972 2.8213694 653 517
11.166556 11.879589 2.8258259 651 513
11.25611 11.871426 2.8233981 708 512
11.341052 11.857718 2.8196678 678 511
11.456057 11.874876 2.8231645 651 510
11.743839 11.861284 2.8183875 597 507
11.85723 11.872869 2.8205588 629 506
11.950731 11.863468 2.8178141 676 505
12.068174 11.877135 2.8204622 634 504
12.160647 11.865112 2.8170953 636 503
12.277253 11.875963 2.8190742 645 502
12.38496 11.877128 2.8187821 586 501
12.48792 11.872821 2.8172061 580 500
12.606814 11.882828 2.8189709 507 499
12.721004 11.887314 2.8194392 519 498
12.836188 11.891728 2.8198855 565 497
12.93136 11.8766 2.8157611 557 496
13.048468 11.88093 2.8161769 580 495
13.159278 11.878506 2.8150098 536 494
13.269578 11.874705 2.8135161 504 493
13.407343 11.894565 2.8175383 490 492
13.528523 11.898401 2.8178144 452 491
13.76503 11.897821 2.8164225 532 489
13.857843 11.874072 2.8102481 424 488
14.00779 11.898623 2.8153284 423 487
14.11976 11.889501 2.8125522 422 486
14.491048 11.886128 2.8097785 380 483
14.617616 11.885233 2.8088937 382 482
14.879244 11.887095 2.8079534 351 480
15.007387 11.884231 2.8065889 394 479
15.133452 11.878661 2.8045883 336 478
15.286243 11.893003 2.8072107 376 477
15.414421 11.886844 2.8050578 301 476
15.545971 11.882237 2.8032587 313 475
15.688789 11.885146 2.8031981 267 474
15.827973 11.884082 2.802206 263 473
15.984091 11.894532 2.8038795 271 472
16.419519 11.893587 2.8013465 289 469
17.982889 11.87431 2.8456073 219 459
13.661127 11.911222 2.8201795 528 490
14.259913 11.903204 2.8150887 475 485
14.392097 11.908976 2.8157697 419 484
14.773636 11.907185 2.8133197 354 481
16.144573 11.906835 2.8059731 338 471
16.303867 11.916824 2.8075197 269 470
17.214725 11.916171 2.8025377 256 464
18.903429 11.910405 2.8495364 183 454
19.075125 11.905065 2.8473222 157 453
2.2442648 -4.461638 2.8539355 146 50
2.3929234 -4.4228697 2.8572252 293 56
2.2618275 -4.3757067 2.8670368 802.33337 51.666668
2.3467221 -4.3721719 2.854439 692 55
2.2498379 -4.3112874 2.8741622 931 52
2.2877884 -4.3478208 2.8683782 471 53
2.3340592 -4.3274937 2.869503 1026.5 55
2.265691 -4.290431 2.8602839 1502 53
2.2443688 -4.2194901 2.8757336 966 53
2.2617815 -4.2026377 2.8642414 1462 54
3.7357986 -4.2078037 2.8895738 359 104
2.2810354 -4.1614494 2.8969457 1229 55
2.3045883 -4.1567035 2.8935227 1460 56
3.6858962 -4.1744509 2.8971241 574 103
2.4789913 -4.1380935 2.8795874 231 63
2.2770085 -4.0906749 2.8779888 1733 56
2.2679799 -3.9855874 2.8903518 1438 57
4.6711173 -3.9515531 2.8506293 558 135
4.6888933 -3.937247 2.8789127 1002 135.33334
4.7162995 -3.9283841 2.8924313 762 136
4.7235899 -3.8837066 2.8595872 708 137.5
2.6257353 -3.8271112 2.8609624 953 73.5
4.7404761 -3.7608631 2.8811047 1119 140
4.7510009 -3.782979 2.8693411 1230 140
4.9840002 -3.7642698 2.8678961 501.5 146
3.7245955 -3.7249165 2.8786068 1060.3334 112.66667
3.7700057 -3.7157803 2.8712478 1511 114.33334
4.9620385 -3.7205195 2.8907952 318.5 146
5.0076976 -3.7365334 2.8745604 391 147
3.7488499 -3.6871555 2.8873165 713 114
5.0026484 -3.6658356 2.8922794 250 148
3.9332166 -3.6260235 2.8679402 1887 121
4.7689128 -3.631727 2.8962438 1090 143
4.8146768 -3.6427255 2.8899765 743.5 144
3.893522 -3.574558 2.8565218 1530 121
4.4037161 -3.4863687 2.8655889 1544 137
5.2651277 -3.2278514 2.8672059 349 163
0.88762456 -2.6694617 2.8800867 1998 7
0.88951993 -2.6324818 2.8681421 1629 7.5
1.1440823 -2.6002979 2.884938 935 22
1.1584485 -2.5914547 2.8751044 823 23
2.3971522 -2.4310112 2.878484 750 88
2.4096806 -2.420733 2.8662751 390 89
2.4059908 -2.389334 2.8852706 344 89
5.1724815 -2.2761784 2.8953979 141 179
1.6366408 -2.2166445 2.8761196 410 54
2.3783627 -2.2165482 2.8561254 396 91.5
1.645932 -2.1969671 2.8643696 691 55
5.4467568 -2.0809455 2.8625045 399 189
5.4946651 -2.0660956 2.870858 412 190
2.1313875 -1.8123816 2.8829162 1168.3334 86
2.160058 -1.8025994 2.8671184 391 88
1.9615974 -1.7640014 2.8849399 1429 78
2.140806 -1.7890227 2.8772345 381 87
2.5747082 -1.7723004 2.8773494 772.40002 107.8
2.6186066 -1.7616882 2.874783 1424.5 110
0.93366641 -1.7156738 2.8612914 806.66669 18
0.95223439 -1.7156733 2.8765597 1343.5 19
1.7399123 -1.7289461 2.8814561 1177.8 66.599998
1.7672206 -1.7258341 2.8776655 950.5 68.25
1.8082088 -1.7228674 2.8800941 190.5 70.5
1.9475116 -1.716808 2.8842535 2136 78
1.9612427 -1.7301941 2.8751152 2275 78.75
2.0010545 -1.7413113 2.8620341 2070 81
2.6754837 -1.7129288 2.8865581 614.5 113
0.93771541 -1.6961466 2.8920498 870 18
0.95235795 -1.6948551 2.8897121 1780 19
9.0996504 -1.6142062 2.8941331 174 242
9.1203833 -1.5837612 2.8689911 181 243
9.0186996 -1.5259726 2.8594215 194 243
2.0775924 -1.411438 2.8649495 1126.5 90
2.0375857 -1.3751072 2.8791804 616 88
2.0613532 -1.3675123 2.8673778 1439.4286 89.714287
2.0738213 -1.3404757 2.8760564 523.25 90.5
3.7389624 0.87720704 2.8983252 777 479
3.6905382 0.92955256 2.8743484 213.25 480.25
3.7350938 0.93090153 2.8778348 149 479
3.7012961 0.9567157 2.8676827 438 480
3.3872094 1.107627 2.8573604 121 492
3.4106581 1.1059884 2.8527408 435 491
3.1997082 1.1857188 2.861259 136 500
3.2215369 1.1775224 2.8591495 156.5 499
3.3117421 1.1742911 2.8683927 149 496
3.4328761 1.1773386 2.8742547 164 492
4.9857049 1.1986082 2.8684318 1776 450
3.2118211 1.2044259 2.8662517 291 500
3.2696106 1.2193294 2.8573015 285.60001 497.80002
3.3966324 1.2250838 2.8756185 326 494
3.4243031 1.2435757 2.8662744 821.5 493
3.4706466 1.2282662 2.8829165 478.5 491.75
3.3237092 1.2783107 2.8687913 1186.1429 497.14288
3.3802936 1.2969482 2.8559968 1502 495
3.4483438 1.2621927 2.8528275 880 492
3.4527631 1.2500291 2.8627372 617 492
3.231811 1.3180931 2.8662875 348 501
3.2773607 1.3149163 2.8875329 789.25 500
3.3329816 1.3345865 2.8881741 814 498.33334
3.3705826 1.3300809 2.8651004 1414 496.16669
3.3651996 1.3625338 2.8841553 715 497.5
3.5163701 1.3995365 2.8873394 325 493
3.4778709 1.4273598 2.8744209 1285.3334 494.33334
3.4427567 1.4736004 2.8964603 808 497
3.4644327 1.4615988 2.8841312 787 495.66669
3.5332427 1.4622754 2.8730345 167 493
3.4269969 1.6413339 2.8832631 836 500
3.3969619 1.6971296 2.8820944 1144 502
3.4268727 1.6734761 2.8736513 1187.4286 500.28574
3.4708929 1.6627651 2.8708701 313.5 498.5
3.4283009 1.7132251 2.8753133 1353 501
3.5274014 1.7901638 2.8741817 1527.5 499
4.2314973 1.7822515 2.8544743 714 477
4.5101113 1.7906624 2.894505 1641 471
3.5303192 1.8142965 2.8736196 1714.3334 499.33334
3.5659008 1.8288872 2.8765197 1723.5 498.5
4.1962295 1.8375108 2.8553369 1822 479
3.4724584 1.8518679 2.8564711 1124.5 501.5
3.5336761 1.8774467 2.8949556 1053 501
3.5635743 1.8677936 2.8658118 1835.5 499
3.5986369 1.9071729 2.8806207 1762 499
3.6199265 1.9023063 2.873059 1673 498
3.7235546 1.943909 2.87463 1698.5 495.5
4.2759223 1.9131351 2.8833125 1531 479
4.4266086 1.9408015 2.8635526 1083 475
4.9443121 1.9233307 2.8924918 424 463
3.4955289 1.9747231 2.8908858 543 504
3.5196986 1.9860168 2.8761411 564.66669 503
3.5650742 1.9951603 2.8887353 853 502
3.6086857 1.999753 2.8647118 1258 500
3.7171531 1.9794029 2.8852162 1497.6667 496.66669
4.2091331 1.9576362 2.8593297 1915 481
4.4823194 1.9873675 2.8847134 1237 475
3.5350509 2.0340967 2.8732662 518.66669 503.33334
3.5598943 2.0205956 2.8641908 672.33337 502
3.6186607 2.0198162 2.8624158 1502 500
3.6530192 2.007575 2.8755274 1758 499
3.5291944 2.0746143 2.8802903 753.75 504.5
3.9800606 2.1307921 2.8643773 936 491
3.9816117 2.176285 2.8703716 753 492
4.2559977 2.1867197 2.853967 1338 484
3.9497175 2.2224426 2.8761182 919 494
4.0392346 2.21577 2.8667245 1253 491
4.1455688 2.2496097 2.8819008 1238 489
4.2737808 2.2217398 2.8859739 1326.5 485
4.1312699 2.2745965 2.8861122 1064 490
4.1874642 2.2800093 2.8645945 1190 488
4.1282101 2.3854012 2.8952987 1612.5 492.5
4.6927328 2.5033457 2.899256 978 480
3.5329065 2.582634 2.8592653 320 514
3.570534 2.5636411 2.8652635 244.5 512.5
3.6075516 2.5574458 2.8580699 113 511
5.3109093 2.5710669 2.8871939 384 467
3.5727067 2.6078715 2.8732204 272.5 513.5
4.237792 2.9953983 2.8592367 1713 501
4.1958823 3.0367007 2.8585389 1311 503
4.235405 3.0330753 2.8679743 1345 502
4.2746644 3.0287039 2.8771477 1380 501
4.3328009 3.0115285 2.8739243 1294 499
4.1349473 3.0502806 2.8586078 318 505
4.2438812 3.0522599 2.8596897 1213 502
4.2881618 3.0582628 2.8649883 1414 501
4.2338376 3.1303167 2.8669064 358 504
4.2982707 3.105319 2.8824134 823 502
4.3364139 3.1463826 2.8940001 1221 502
4.2321825 3.169384 2.8759317 691.5 505
4.3129749 3.1691904 2.8886635 533 503
4.2438302 3.2263784 2.8858082 1313 506
4.2813005 3.2829778 2.8798976 785 506
4.3136253 3.2703292 2.868546 1070 504.66669
4.2630692 3.3257186 2.8587687 440 507
4.3087091 3.3257604 2.8735294 644 506
4.4367485 3.331553 2.8927636 1300 503
4.2796016 3.3750436 2.8715179 257.75 507.75
4.2715216 3.4337065 2.8626826 240 509
4.3300714 3.4080329 2.8695352 499 507
3.9188457 3.4670811 2.8783879 146.5 520
3.955255 3.4835877 2.8628397 175 519
4.352293 3.7880647 2.8768525 233.5 514
3.6843965 10.839577 2.8942509 924 611
3.7298596 10.814344 2.8873241 1051 610
3.7851524 10.818336 2.888087 1002 609
3.846242 10.838581 2.8931246 1032 608
4.0116229 10.843558 2.8935616 976 605
4.0688081 10.849868 2.8949282 909 604
4.1180367 10.834045 2.8904743 1003 603
4.1702671 10.826198 2.8881168 971 602
4.2300949 10.838084 2.8909471 898 601
4.2855663 10.837892 2.8906002 1025 600
4.9126782 10.84589 2.8893769 971 589
4.971086 10.846896 2.8893321 816 588
3.9082248 10.860348 2.8985605 966 607
3.9626842 10.859843 2.8981366 923 606
4.3534799 10.869103 2.8985069 926 599
4.4028115 10.852073 2.8937321 959 598
4.4607449 10.856477 2.8945901 863 597
4.5169706 10.856096 2.8941896 917 596
4.572906 10.854548 2.8934815 976 595
4.6330199 10.862603 2.8952949 945 594
4.6917801 10.866776 2.8960872 848 593
4.752954 10.876023 2.898211 891 592
4.8676233 10.874883 2.8972976 783 590
5.0388341 10.867988 2.8945584 823 587
5.0991545 10.871917 2.8952777 823 586
5.161242 10.879072 2.8968425 807 585
5.2263851 10.892076 2.89994 710 584
5.2725258 10.864308 2.892338 765 583
5.3273678 10.854778 2.8895211 849 582
5.3988199 10.879128 2.895591 718 581
5.4559851 10.873382 2.893764 777 580
5.5857677 10.891508 2.8978741 629 578
5.6423268 10.883133 2.895354 743 577
5.707819 10.89181 2.8973038 666 576
5.765409 10.884585 2.8950827 623 575
5.8230395 10.877083 2.8927879 699 574
5.8775105 10.863276 2.88884 618 573
6.0152111 10.888013 2.8946593 590 571
6.1448159 10.895047 2.8958321 653 569
6.1943564 10.870408 2.8890407 606 568
6.2740326 10.899023 2.8961966 544 567
6.5261021 10.889454 2.8923182 556 563
6.783247 10.880493 2.8885736 476 559
6.8538289 10.887162 2.8899641 494 558
3.7566571 10.908431 2.854136 676 610
3.8649042 10.906745 2.853122 597 608
4.0359464 10.925203 2.8570035 578 605
4.1433063 10.91638 2.8541412 557 603
4.1999364 10.919336 2.8546073 563 602
4.2518377 10.909298 2.8517253 557 601
4.3142023 10.926252 2.8557947 613 600
4.4292574 10.93297 2.856926 563 598
4.5436535 10.935868 2.8570695 471 596
4.6576796 10.935867 2.8564622 576 594
4.776238 10.944616 2.8581023 537 592
4.8258686 10.925766 2.8529446 534 591
4.8867216 10.93257 2.8543868 440 590
5.1854181 10.945179 2.8560705 454 585
6.0867352 10.90409 2.8985374 576 570
6.3414998 10.90516 2.8974628 614 566
6.4062123 10.905866 2.8973048 634 565
6.4715405 10.907077 2.8972774 611 564
6.6030836 10.909304 2.8971663 513 562
6.6687994 10.909475 2.8968616 552 561
6.7391982 10.916808 2.8984289 460 560
6.9344363 10.909167 2.8953643 463 557
7.0708842 10.911417 2.8952329 512 555
7.1427555 10.917326 2.896415 450 554
7.2121482 10.918741 2.8964202 475 553
7.2731032 10.906714 2.892909 434 552
7.3448858 10.910666 2.8935733 421 551
7.5739231 10.938691 2.8997769 399 548
7.695148 10.90836 2.8910956 319 546
3.6705415 10.976558 2.8722801 309 612
4.6142988 10.9693 2.8653724 442 595
4.7238822 10.956977 2.8615899 567 593
4.9528432 10.950639 2.8587258 417 589
5.0220017 10.974577 2.864572 483 588
5.0778074 10.967986 2.8625638 398 587
5.1450071 10.985916 2.8668611 405 586
5.3105364 10.958346 2.8588228 433 583
5.4456372 10.989511 2.8661938 411 581
5.5109687 10.999301 2.8683875 382 580
5.6877847 10.986628 2.8641562 345 577
9.2631559 10.965335 2.8978319 158 526
5.2731366 11.005708 2.8713169 464 584
5.3952546 11.010116 2.8718109 364 582
5.583858 11.023585 2.8743038 366 579
5.6360707 11.005657 2.8693717 377 578
5.7590237 11.00553 2.8686843 359 576
5.829638 11.022308 2.872664 401 575
5.8955274 11.029199 2.8741021 355 574
6.0167542 11.021311 2.8714089 353 572
6.083519 11.028061 2.8728061 302 571
6.1420226 11.019054 2.8701565 347 570
6.2071714 11.021715 2.8705003 342 569
6.2824583 11.041922 2.8753452 310 568
6.3350005 11.020915 2.8696122 299 567
6.4145665 11.047144 2.8759978 289 566
6.4622979 11.017097 2.8679435 278 565
6.5334702 11.027351 2.8702266 305 564
6.666966 11.030728 2.8703928 229 562
6.7301483 11.025607 2.868727 274 561
6.6137695 11.052358 2.8762908 281 563
6.8308973 11.081963 2.8828204 225 560
6.9633389 11.078083 2.8811083 235 558
7.0178132 11.056561 2.8752313 256 557
7.225812 11.06037 2.875113 260 554
7.3048406 11.075371 2.8785865 193 553
7.3718019 11.071111 2.8771241 242 552
7.4377799 11.064863 2.8751512 207 551
7.7989955 11.071809 2.8750312 208 546
8.1037207 11.08823 2.8776722 193 542
4.3301821 11.129478 2.8501489 360 601
4.3913798 11.140668 2.8526697 350 600
4.4471049 11.137038 2.8514502 412 599
7.5359206 11.106237 2.8853693 236 550
7.605011 11.103213 2.8842165 195 549
7.775147 11.141993 2.893378 208 547
7.8999033 11.112223 2.8849857 212 545
7.9792638 11.120833 2.8867986 221 544
3.6686487 11.154268 2.8599713 417 613
4.7421198 11.152763 2.8538816 349 594
4.8035712 11.160072 2.8554142 323 593
5.1698146 11.184989 2.8598046 334 587
5.3492637 11.181847 2.8580513 292 584
5.407443 11.176393 2.856355 284 583
5.4762139 11.192642 2.8601224 331 582
5.5307603 11.178687 2.8562829 258 581
5.598598 11.19163 2.8592143 279 580
5.7751708 11.17259 2.8534329 283 577
5.8422852 11.181593 2.8553658 282 576
6.2969251 11.19782 2.8570762 259 569
6.4910197 11.194964 2.8553181 266 566
8.3939657 11.176634 2.8990769 203 539
8.6919374 11.162687 2.8938704 166 535
8.9240179 11.157063 2.891175 129 532
5.6701231 11.211204 2.8638127 250 579
5.9230618 11.216232 2.8637471 279 575
5.9802475 11.204581 2.8604796 259 574
6.0602841 11.23579 2.8679922 299 573
6.1871428 11.233265 2.8666756 297 571
6.2479119 11.226377 2.8646004 227 570
6.6283302 11.204055 2.8569005 254 564
6.7167921 11.241328 2.8659105 224 563
6.8538518 11.245522 2.8662486 225 561
6.3958011 11.258601 2.8720107 210 568
6.7932343 11.257054 2.8695042 264 562
6.9504614 11.293058 2.8778262 213 560
7.0078163 11.274936 2.8729117 228 559
7.0620522 11.251553 2.8666756 170 558
7.1301904 11.250325 2.8660014 243 557
7.269453 11.25091 2.8654096 233 555
7.3660026 11.292205 2.8753998 175 554
7.4412174 11.299241 2.8767898 213 553
8.0946321 11.297804 2.8729506 248 544
7.517168 11.306675 2.8782768 167 552
7.7593803 11.345882 2.8869619 204 549
7.806468 11.307831 2.877033 204 548
7.891077 11.324477 2.8808172 203 547
8.2698059 11.332561 2.8808601 197 542
8.646616 11.322106 2.8761976 160 537
8.7176342 11.312503 2.8733771 184 536
3.6758349 11.365109 2.8568544 371 614
5.4972486 11.379053 2.8506594 326 583
5.6853685 11.381752 2.8503337 312 580
5.7529206 11.391356 2.8523695 341 579
5.9402409 11.385854 2.850003 306 576
8.5246439 11.366948 2.8882515 198 539
6.0794649 11.407166 2.854578 266 574
6.1589823 11.435397 2.8611958 271 573
6.2870488 11.431167 2.8594606 331 571
6.3523965 11.430706 2.858999 322 570
6.4934287 11.446709 2.8622403 282 568
6.6866393 11.433519 2.8579254 301 565
6.7526803 11.431004 2.8569474 266 564
7.0198693 11.420858 2.852999 318 560
7.598166 11.443535 2.8555827 303 552
8.4798336 11.411047 2.8997066 165 540
6.2439337 11.472651 2.8700345 263 572
6.4476171 11.483825 2.8717391 344 569
6.6337662 11.458636 2.8644698 291 566
6.8366542 11.458513 2.8633614 295 563
6.9785604 11.466722 2.8646548 260 561
7.1252046 11.480077 2.8672063 245 559
7.3324995 11.474706 2.8647664 270 556
7.419167 11.499447 2.8704758 287 555
7.305748 11.544979 2.8824317 263 557
7.4940262 11.50472 2.871393 250 554
7.5893135 11.540805 2.8798852 305 553
7.9602122 11.547024 2.8794665 294 548
7.9110122 11.584144 2.888984 294 549
8.2089643 11.580688 2.8865404 269 545
3.6890628 11.602284 2.8550119 514 615
5.4833107 11.62936 2.8521054 494 585
5.7427158 11.643191 2.8541059 502 581
5.8052154 11.640339 2.8530784 488 580
6.131021 11.644884 2.8524597 427 575
6.5298128 11.646697 2.8507874 535 569
7.8599963 11.618622 2.8978524 294 550
8.3033142 11.606427 2.8924577 277 544
8.3929253 11.6244 2.8964636 307 543
8.4610901 11.611583 2.8929055 256 542
8.7810974 11.619645 2.8932166 250 538
9.1831884 11.617058 2.8904364 223 533
9.2778282 11.632586 2.8938057 262 532
9.3709421 11.645225 2.8964632 259 531
5.4322934 11.654624 2.8585432 494 586
5.6828279 11.651023 2.8563354 503 582
5.8790669 11.659954 2.8574748 470 579
6.0077572 11.658713 2.8564894 556 577
6.0689182 11.651078 2.8543012 487 576
6.2026944 11.656583 2.8549354 453 574
6.2796125 11.677406 2.8596106 488 573
6.3563719 11.696938 2.8639712 460 572
6.40833 11.669555 2.8570113 498 571
6.6034379 11.657908 2.8531337 456 568
6.6835251 11.679803 2.8580534 492 567
6.8309979 11.698452 2.8618238 447 565
7.030798 11.684638 2.8573921 486 562
3.6751628 11.743112 2.8894627 540 616
6.7644148 11.70209 2.863065 499 566
6.9089785 11.713944 2.8651919 463 564
6.9778142 11.712951 2.8645844 520 563
7.1223788 11.720804 2.8657346 423 561
7.1885762 11.713667 2.8636415 485 560
7.2619872 11.717896 2.8642843 455 559
7.4145002 11.73347 2.8672771 486 557
7.5573254 11.730799 2.8658676 490 555
7.6326299 11.734664 2.8664119 516 554
2.508004 11.791499 2.8506179 1378 637
2.6183124 11.792744 2.8503313 1437 635
7.3576779 11.757583 2.8734646 507 558
7.5046263 11.762187 2.8738093 520 556
7.7235584 11.761974 2.8725963 471 553
7.7907357 11.751813 2.8697596 553 552
7.8666067 11.754396 2.8699877 497 551
7.9540648 11.773696 2.8742352 557 550
8.0270634 11.770508 2.8730698 504 549
8.0941181 11.758 2.8696609 544 548
8.1795158 11.771843 2.8725872 481 547
8.2562542 11.772279 2.8722866 474 546
8.3320274 11.77068 2.8714945 474 545
8.4090691 11.770267 2.8709848 484 544
8.4976454 11.785411 2.874212 578 543
8.55616 11.757784 2.8671577 503 542
8.6480103 11.775974 2.8711109 502 541
8.7251072 11.773011 2.8699787 546 540
8.8245068 11.799627 2.8759489 471 539
8.8961363 11.787837 2.8726907 468 538
8.9861269 11.79999 2.87518 554 537
9.0621376 11.79283 2.873029 474 536
9.1268997 11.770434 2.8672187 538 535
9.3034754 11.785089 2.8698599 489 533
9.4797678 11.796102 2.871613 488 531
9.555953 11.785483 2.8686168 450 530
9.8193665 11.792839 2.8690155 528 527
2.3462925 11.805509 2.8548267 1416 640
2.4003181 11.801708 2.8536313 1380 639
2.454921 11.800541 2.8530626 1418 638
2.5668015 11.809882 2.8547051 1413 636
2.6800599 11.822981 2.8572395 1426 634
2.7332571 11.812981 2.8545647 1403 633
2.7885673 11.812254 2.8540978 1423 632
2.8417232 11.801791 2.8513126 1359 631
2.9011059 11.81765 2.8547926 1319 630
2.9577155 11.820915 2.8552742 1395 629
3.0141747 11.822979 2.855469 1361 628
3.0659726 11.805884 2.851104 1426 627
3.1212854 11.802738 2.8500581 1414 626
3.1790767 11.808778 2.8511972 1395 625
3.2364805 11.812668 2.8518238 1399 624
3.29423 11.817236 2.8526111 1413 623
3.4110754 11.829329 2.8548861 1387 621
3.4664752 11.823716 2.8532493 1347 620
3.5235095 11.823479 2.8528903 1360 619
3.5784078 11.815496 2.8506894 1390 618
9.2367029 11.806004 2.875319 506 534
9.4127855 11.81788 2.8772843 535 532
9.6656046 11.815716 2.8754153 502 529
9.7651377 11.832293 2.8789339 480 528
9.9255905 11.815932 2.8740892 483 526
10.008824 11.810459 2.8723118 484 525
10.11824 11.835299 2.8777952 553 524
10.184001 11.807798 2.8707333 548 523
10.297209 11.835141 2.8768075 445 522
10.383105 11.829803 2.8750489 508 521
10.455523 11.808418 2.8694446 533 520
10.564453 11.82794 2.8736322 536 519
10.650164 11.820312 2.8713157 522 518
10.861679 11.847297 2.876781 486 516
10.955945 11.846705 2.8761368 539 515
11.031028 11.824562 2.8703332 540 514
11.229792 11.830714 2.8707807 507 512
11.835026 11.837751 2.8692887 436 506
11.939579 11.839617 2.8691895 472 505
12.040869 11.837348 2.8680985 483 504
13.592824 11.838562 2.8601639 373 490
14.329041 11.843784 2.8575342 353 484
5.0811596 11.860868 2.853585 699 593
10.770249 11.850243 2.877985 495 517
11.158498 11.858213 2.8778718 491 513
11.349189 11.853597 2.8757331 555 511
11.45197 11.857888 2.8762357 503 510
11.548841 11.855151 2.8750539 563 509
11.650716 11.856762 2.8749068 484 508
11.759036 11.864062 2.8761144 473 507
12.16346 11.85519 2.8718038 468 503
12.295618 11.881166 2.877444 491 502
12.389927 11.869229 2.8740299 469 501
12.486495 11.858765 2.8709631 509 500
12.600375 11.864016 2.8716409 537 499
12.727469 11.880701 2.8750398 472 498
12.808043 11.852763 2.8677926 396 497
12.937883 11.86995 2.8712997 459 496
13.041191 11.861572 2.8687067 466 495
13.157087 11.863834 2.868644 413 494
13.287185 11.877898 2.8713875 394 493
13.425021 11.897665 2.8754814 430 492
13.525567 11.883089 2.8713901 376 491
13.747887 11.870218 2.867069 371 489
13.888522 11.887877 2.8706338 365 488
14.023562 11.899428 2.8727374 347 487
14.097892 11.858299 2.8623035 373 486
14.22661 11.862546 2.8626575 365 485
14.511637 11.890467 2.8679614 375 483
14.632923 11.885105 2.8660092 387 482
14.864596 11.862674 2.8593049 381 480
15.025956 11.886383 2.8642368 342 479
15.135006 11.867256 2.8589895 334 478
15.277672 11.873652 2.8597939 278 477
15.408948 11.869964 2.8581975 329 476
