# .PCD v0.7 - Point Cloud Data file format
VERSION 0.7
FIELDS x y z intensities index
SIZE 4 4 4 4 4
TYPE F F F F F
COUNT 1 1 1 1 1
WIDTH 1142
HEIGHT 1
VIEWPOINT 0 0 0 1 0 0 0
POINTS 1142
DATA ascii
9.0326052 2.2256291 -0.94795573 248 383
6.8658776 2.2700946 -0.94814903 1371 402.5
6.9328184 2.2707131 -0.93809807 1255.6667 401.66669
6.9751372 2.2671502 -0.92834806 1136 401
7.0261664 2.2706513 -0.92365479 1106.5 400.5
7.0574737 2.2674816 -0.91621435 1046 400
7.1193991 2.2741983 -0.91276324 949.5 399.5
7.1842551 2.2815487 -0.90965003 917 399
7.2101245 2.2576683 -0.90025473 771 398
7.2904639 2.2878814 -0.9000715 764 398
7.3154173 2.2586222 -0.9012199 735 397
7.6511521 2.2623365 -0.90456629 567 394
7.711998 2.2852409 -0.9013657 449 394
7.842977 2.2509294 -0.90107405 465 392
8.017787 2.2667694 -0.90837109 455 391
8.0989361 2.2947247 -0.90724444 374 391
8.1718626 2.2752814 -0.91262591 406 390
8.4481058 2.2749879 -0.92698544 422 388
8.5193062 2.2528079 -0.93105918 394 387
8.6971693 2.2582359 -0.94706225 316 386
8.9368658 2.2878637 -0.94778025 307 385
6.88449 2.31705 -0.94178861 1222.5 403.5
6.9154181 2.3324556 -0.93507981 1300 403.5
6.9688449 2.3268938 -0.92659879 1100.3334 402.66669
7.0201721 2.3255453 -0.91984117 1109.5 402
7.0557251 2.3240623 -0.9125452 1087 401.5
7.1242552 2.3332713 -0.91016281 928.5 401
7.1677198 2.3129876 -0.90928221 924 400
7.2204876 2.3352292 -0.90463525 879 400
7.2597532 2.3106029 -0.9088524 862 399
7.300334 2.3286426 -0.90252018 856 399
8.0765572 2.3287139 -0.90683776 412 392
8.2182732 2.3340271 -0.90968317 355 391
8.3171711 2.321094 -0.91884094 365 390
8.5322247 2.3237405 -0.92748094 375 388.5
8.6865406 2.3261995 -0.93585026 331.5 387.5
8.7179747 2.3158431 -0.93185782 336 387
1.6888286 2.3776288 -0.94427162 3447 556
1.882121 2.3568363 -0.93680996 3167 543
6.8795276 2.3694897 -0.94308674 1406 405
6.9234605 2.3921909 -0.93209767 1286 405
6.9641867 2.3747087 -0.92549229 1156.5 404
7.0170693 2.3635941 -0.91452008 890 403
7.0752144 2.3884842 -0.91052568 916 403
7.1230283 2.3724847 -0.90467256 811 402
7.2009306 2.3662157 -0.90270543 850 401
7.2879133 2.3811431 -0.90222365 802 400.5
8.0089684 2.3692875 -0.90169001 456 393.5
8.2386332 2.381181 -0.91415095 408 392
8.4194613 2.3550775 -0.91896528 334 390
6.8877001 2.4270158 -0.94548386 1327 406.5
6.9232965 2.4289098 -0.93223077 1290.5 406
6.9720674 2.4168105 -0.92078638 1164 405
7.0464792 2.4293218 -0.91917294 1120.5 404.5
7.0507932 2.4169936 -0.90784901 1016 404
7.1379666 2.4334321 -0.90769327 1008.5 403.5
7.194416 2.4013743 -0.90275437 775 402
7.2695618 2.4316115 -0.9009943 801 402
8.09799 2.4211133 -0.90164959 453 394
8.3177643 2.4091413 -0.91186601 438 392
8.3530397 2.4242349 -0.90421027 363 392
8.4626751 2.4143264 -0.91461766 365 391
8.5791121 2.4054651 -0.92531329 298 390
8.7741632 2.4224355 -0.93287724 260 389
6.8815451 2.4824719 -0.93847579 1410 408
6.9159784 2.4630923 -0.93130207 1324 407
6.9837394 2.4763446 -0.92288899 1327.5 406.5
7.0212817 2.476042 -0.91612518 1203 406
7.068151 2.4789631 -0.91039187 1096.5 405.5
7.1356487 2.4890096 -0.90744811 949 405
7.1715746 2.4687109 -0.90022326 942 404
8.280529 2.4814315 -0.91095793 351 394
8.592514 2.4567342 -0.91759223 335 391
6.8757477 2.5286779 -0.93953443 1374.6667 409.33334
6.9179449 2.5216851 -0.92529273 1240 408.5
6.9638519 2.5272923 -0.91340667 1105.5 408
7.000289 2.5057697 -0.91283357 981 407
7.0655022 2.5343399 -0.90944564 891 407
7.1052685 2.5158384 -0.90300149 786 406
7.1842561 2.5110295 -0.90170252 781 405
8.2216368 2.525876 -0.90585208 408 395.5
8.3352814 2.5449102 -0.90643764 430 395
8.3965158 2.5215545 -0.91213077 367 394
8.470109 2.5060925 -0.90696633 351 393
6.8653755 2.5850341 -0.94107527 1366 411
6.9015007 2.5664372 -0.93447369 1372 410
6.9719458 2.5816307 -0.92596149 1361.5 409.5
7.0109262 2.5845642 -0.9132632 1218 409
7.074059 2.5751045 -0.91025287 1168 408
7.1163292 2.5765622 -0.90365303 919 407.5
7.1911221 2.551403 -0.90248579 830 406
8.0579367 2.5729868 -0.90029222 425 398
8.1682854 2.5716965 -0.90044397 409 397
8.3166933 2.5815015 -0.90467656 388 396
8.489852 2.5762293 -0.91101986 376.5 394.5
9.0810041 2.5633976 -0.94531882 347 390
6.8363233 2.6435063 -0.94749868 1294 413
6.8804607 2.630621 -0.9359771 1294 412
6.9134817 2.6107669 -0.92906272 1297 411
6.9718781 2.6169348 -0.9146204 1156 410.33334
7.0759144 2.6138489 -0.90919721 938 409
7.1288338 2.6388047 -0.90269929 825 409
8.2809277 2.6127682 -0.90003818 392 397
8.4645777 2.6332102 -0.90805531 291 396
6.834959 2.680335 -0.94627178 1342 414
6.8778033 2.6671367 -0.9342466 1323 413
6.9291759 2.6760287 -0.92218101 1380.5 412.5
6.9695745 2.6778305 -0.91522717 1477 412
7.0085649 2.6788952 -0.90812361 1262 411.5
7.0630646 2.6665335 -0.90422046 1196.5 410.5
8.2885561 2.6578383 -0.90040189 355 398
8.4039841 2.657114 -0.90078509 317 397
6.8462825 2.7227085 -0.94594479 1338 415
6.8806295 2.7226832 -0.93809712 1351.5 414.5
6.9301872 2.7311621 -0.92553055 1307.5 414
6.975512 2.7184062 -0.91370857 1395 413
7.0031662 2.7340271 -0.90449053 1068 413
8.4152088 2.7037251 -0.90208858 276 398
8.6160173 2.7298779 -0.91186839 336 397
6.8323112 2.7789268 -0.94387388 1120 416.66669
6.859221 2.7713072 -0.93093491 1167 416
6.9246464 2.7790477 -0.92395365 1152.6667 415.33334
6.9798717 2.7605944 -0.90588057 1056 414
9.0886393 2.7532294 -0.93695545 270 394
6.8214149 2.8220375 -0.94785517 1203 418
6.8727074 2.8316979 -0.93623483 1296 417.5
6.9251146 2.8246541 -0.91925573 1205.5 416.5
6.989923 2.8199921 -0.9104681 1181 415.5
7.0317917 2.8224556 -0.90397662 951 415
9.1792603 2.8298411 -0.94063556 257.5 395
17.320395 2.8143952 -0.91243309 118 361
17.352417 2.8126636 -0.93415439 110 361
6.7986517 2.888675 -0.93950576 1124 420
6.8183022 2.8612599 -0.93818188 1196.5 419
6.873229 2.8726368 -0.92692035 1160 418.5
6.9236822 2.8818865 -0.9147324 1170 418
6.9698253 2.8673115 -0.91033673 1169.5 417
7.0370474 2.863482 -0.90179628 1090 416
9.3672333 2.8958888 -0.9402386 257 395
17.328907 2.8898168 -0.93550873 137 362
17.352537 2.8938079 -0.93690634 104 362
6.7680068 2.908854 -0.94593847 1094 421
6.8210278 2.9200263 -0.93422234 1226.5 420.5
6.9145346 2.9314439 -0.92263258 1152 419.5
6.9568229 2.9370925 -0.90948415 1214 419
7.0049491 2.9232619 -0.90543985 1185 418
8.6704731 2.9303224 -0.90129995 294 401
9.2265615 2.9409432 -0.93813151 257 397
6.7295184 2.9830716 -0.94595128 1101 423.5
6.7753048 2.9698739 -0.94197702 1196 422.5
6.8188314 2.9747162 -0.93580377 1162 422
6.8735766 2.9792814 -0.92726558 1166.6667 421.33334
6.9205084 2.975229 -0.91332829 1111 420.5
6.9505401 2.9733846 -0.90520978 1072 420
9.0188665 2.9614301 -0.92818463 224 399
9.1949692 2.9776511 -0.9341827 342 398
6.7821832 3.0310543 -0.93778217 1019 424
6.8086977 3.0089056 -0.93103266 967 423
6.8846331 3.0477998 -0.92762548 979 423
6.9230037 3.0327215 -0.9152419 1044.5 422
6.9568062 3.0153418 -0.90227425 1111 421
9.0965633 3.0388811 -0.92086697 288 400
9.1575947 3.0123596 -0.9290278 218 399
9.5547514 3.007971 -0.9455595 202 396
6.650209 3.0720544 -0.94982904 940 427
6.7341728 3.0602012 -0.94659352 924.5 425.5
6.7594767 3.0938628 -0.94104624 1102 426
6.833776 3.0765028 -0.93613446 941.5 424.5
6.8651786 3.078306 -0.9207198 1012 424
6.9284773 3.0746596 -0.91169375 1042 423
6.9945664 3.0717347 -0.90297884 933 422
9.2425299 3.0502033 -0.90869445 227 399
6.5994315 3.1205559 -0.94835198 1048 429
6.6628718 3.1168742 -0.94756722 1077 428
6.7180457 3.1234138 -0.93891829 987.66669 427.33334
6.7900195 3.1128669 -0.93071067 1023 426
6.8678489 3.1291389 -0.92480862 1061.6667 425.33334
6.9039698 3.1008077 -0.91108167 1074 424
6.9698253 3.1356404 -0.90511751 1051 424
9.1615753 3.1084259 -0.92546129 283 401
9.2737122 3.1037517 -0.92468274 270 400
6.3080063 3.1824369 -0.94904268 1059 435
6.6724777 3.1802835 -0.94178855 1018 429.5
6.7056384 3.1814826 -0.93385148 1159 429
6.7934628 3.1888912 -0.93651217 1197 428
6.8276954 3.1701992 -0.93117356 1116 427
6.8753071 3.1798544 -0.91744035 1195.5 426.5
6.9194131 3.1676452 -0.9058069 1154.5 425.5
9.2693758 3.1984835 -0.91894817 220 402
1.534791 3.2095397 -0.94829202 2919 590
1.6225898 3.2103424 -0.94901079 2858 585
1.7456441 3.2057893 -0.94828051 2896 578
6.2558584 3.2271409 -0.94492477 1006 437
6.3276362 3.2310936 -0.94647825 979 436
6.3951645 3.232239 -0.94717944 943 435
6.4610562 3.2319806 -0.94745708 986 434
6.5286694 3.2148814 -0.94276834 972.5 432.5
6.6096659 3.2036917 -0.93989754 812 431
6.6843014 3.2454145 -0.93543971 1014 431
6.7435751 3.239598 -0.93406993 905 430
6.782393 3.223413 -0.92958164 1149 429
6.8129482 3.2229552 -0.92114568 1158 428.5
6.8785658 3.2288342 -0.90933245 1072 427.66669
9.3144627 3.218797 -0.90871501 267 402
1.4298942 3.2720954 -0.94976467 2951.5 597.5
1.774965 3.2694292 -0.94642407 2906 578
5.9995332 3.2926614 -0.94547606 1038 443
6.1161151 3.2907603 -0.94554985 999 441
6.178041 3.2910602 -0.9459691 1130 440
6.2522917 3.2974679 -0.94822681 1158 439
6.3158526 3.2805173 -0.94364911 1081.5 437.5
6.4022923 3.2748623 -0.94247192 894 436
6.4647141 3.2729723 -0.94225836 856 435
6.5148854 3.2643144 -0.94001514 828 434
6.5748281 3.2602127 -0.93914652 862 433
6.635354 3.2757649 -0.93536735 923 432.5
6.6862726 3.2861664 -0.93009669 949 432
6.7367244 3.2761216 -0.92750448 953 431
6.7898822 3.2670245 -0.92519683 1106 430
6.8157067 3.2842424 -0.91366702 1027 430
6.8636103 3.272043 -0.91050816 1068 429
9.2183084 3.2767115 -0.90777999 274 404
1.3872808 3.3216591 -0.94669402 2963 601
1.4207211 3.3188453 -0.94604224 2982.6667 599
1.4733999 3.3306777 -0.94274515 2944.8 596.20001
1.5138695 3.3120747 -0.94454241 3007 593.5
1.5831211 3.3285859 -0.94979262 2906 590
1.6227052 3.3233061 -0.94844544 2850.3335 587.66669
1.6684825 3.3178644 -0.94708359 2870 585
1.7183852 3.3265328 -0.94991279 2879 582.5
1.766754 3.3120623 -0.94589734 2855 579.5
1.8414724 3.3322721 -0.94342482 2875 576
1.8648837 3.3201349 -0.94880956 2869.5 574.5
1.9311477 3.318598 -0.94871151 2934 571
2.0371752 3.3158207 -0.94846058 2877 565.5
2.0877352 3.3170741 -0.94910246 2948 563
2.1186538 3.3182323 -0.94961083 2912 561.5
2.166826 3.3138807 -0.9485839 2867 559
5.1061902 3.3234091 -0.9496057 1472 461
5.3876038 3.3175869 -0.949426 1222 455
5.4336915 3.3147619 -0.94885349 1294 454
6.1521101 3.3490953 -0.94516796 995 442
6.2808824 3.3347206 -0.94176143 950 439.5
6.349442 3.3202477 -0.93800431 1083 438
6.4232144 3.324985 -0.93974954 969 437
6.4558682 3.3076143 -0.93497437 815 436
6.5386662 3.3159597 -0.93779612 859 435
6.5943055 3.3096869 -0.9363066 819 434
6.6313677 3.3332613 -0.92640346 834 434
6.7181149 3.3421023 -0.92934257 909 433
6.7607398 3.3280613 -0.92563993 897 432
6.8086948 3.3186564 -0.91483688 990 431
6.8878393 3.3242042 -0.90838307 924 430
6.91359 3.3008442 -0.90209901 964 429
9.2051868 3.3157003 -0.91842782 221 405
9.2528582 3.3379116 -0.9070307 313 405
0.79609072 3.398062 -0.94814551 2874 638
0.99124825 3.3996944 -0.9496662 2914 626
1.3261938 3.3943276 -0.94990575 2958 606
1.3740295 3.3828819 -0.94684112 2964 603
1.4228754 3.3738565 -0.94448417 2929.3335 600
1.4533302 3.3621068 -0.94123805 2965 598
1.5294346 3.3748834 -0.94535387 2956 594
1.5762366 3.3794417 -0.94692761 2890 591.5
1.620726 3.3774898 -0.94659996 2845.6667 589
1.6847681 3.3772373 -0.94687021 2810 585.5
1.7280467 3.370801 -0.94523472 2845.3335 583
1.7749617 3.3711071 -0.94557518 2824.5 580.5
1.8189744 3.3647747 -0.94397378 2863 578
1.8806782 3.3549676 -0.94145906 2837.5 574.5
1.9249589 3.3732593 -0.94111341 2832.3335 572.66669
1.9693822 3.3575702 -0.94269013 2926 570
2.0271657 3.3725643 -0.9473511 2904.5 567.5
2.0769384 3.3718853 -0.94742107 2875 565
2.1283724 3.3731198 -0.94805527 2891.5 562.5
2.1688485 3.3721979 -0.9480049 2851 560.5
2.2020423 3.3756738 -0.94919157 2883 559
5.1417379 3.3833549 -0.94951797 1496 462
5.1800833 3.3775299 -0.94806343 1379 461
5.2160015 3.3698144 -0.94605714 1405 460
5.2825074 3.3818758 -0.94985062 1386 459
5.3169107 3.3724818 -0.94735795 1254 458
5.3687763 3.3740771 -0.94809037 1390 457
5.4728446 3.3761518 -0.94923913 1257 455
5.5175004 3.3719187 -0.94827211 1159 454
5.5630608 3.3678946 -0.9473694 1169 453
5.6053157 3.3614869 -0.94576979 1127 452
5.6594486 3.3619683 -0.94619691 1079 451
5.7060633 3.3574753 -0.94516635 1026 450
5.7578411 3.3556893 -0.94493479 1065 449
5.8301597 3.3655839 -0.94814187 1118 448
5.8667922 3.3539951 -0.94503564 1119 447
5.9359922 3.3800149 -0.94425344 1098 446.5
6.0001879 3.3644829 -0.94873905 1116 445
6.061954 3.3660555 -0.94951808 1044 444
6.1039915 3.3560381 -0.94688857 966 443
6.22859 3.3768184 -0.94490921 958.5 441.5
6.2792368 3.3898997 -0.94037521 960 441
6.3146043 3.3748271 -0.93634486 958 440
6.370008 3.3703363 -0.93538415 899 439
6.4351034 3.3705761 -0.93579954 965 438
6.4836726 3.3615379 -0.9335292 960 437
6.5445766 3.3585842 -0.93302816 937 436
6.6038151 3.3542714 -0.93213773 844 435
6.7151999 3.3808246 -0.92302537 1019 434
6.7863498 3.3633718 -0.91860777 1000 432.5
6.8662348 3.3904052 -0.90844762 1081 432
6.9090986 3.3755884 -0.90468168 896 431
9.1965504 3.3612032 -0.91300976 242 406
9.2852039 3.3989909 -0.90508658 197 406
0.77604663 3.42103 -0.9457342 2946.75 639.5
0.80501014 3.4472361 -0.94448876 2925 638
0.91046131 3.4436595 -0.94403458 2894.5 631.5
1.0025705 3.4483624 -0.94586813 2815 626
1.2792652 3.4381351 -0.94443607 2948.5 609.5
1.3168442 3.4463797 -0.94698685 2902 607.5
1.3744543 3.4361875 -0.94439095 2926 604
1.4248146 3.4292278 -0.9426775 2908 601
1.4751177 3.4216201 -0.94077909 2948.6667 598
1.5266259 3.4266076 -0.93553585 2935.2 595.20001
1.5735641 3.4331269 -0.93590665 2933.5 592.75
1.620677 3.4234235 -0.94207275 2853 590
1.6758207 3.4228301 -0.94219899 2856.6667 587
1.7223616 3.4226761 -0.94240451 2914 584.5
1.7699107 3.4247522 -0.93891025 2856 582
1.8202627 3.4099135 -0.93929195 2859 579
1.8742727 3.4239097 -0.93490136 2833.5 576.5
1.9190407 3.4296308 -0.93388176 2817.3335 574.33337
1.9625076 3.4234979 -0.93814027 2815 572
2.0188339 3.4157579 -0.94202125 2911.6667 569
2.065649 3.4096823 -0.94054067 2895.5 566.5
2.1248655 3.4239023 -0.94491023 2834 564
2.1765285 3.4238777 -0.94518006 2833 561.5
2.2094483 3.4265301 -0.94611233 2856 560
2.256983 3.4351165 -0.94881386 2857 558
5.0877967 3.4461422 -0.94974548 1510 465
5.1261945 3.440825 -0.94846237 1466 464
5.1687193 3.4380281 -0.94790691 1398 463
5.2285461 3.4304965 -0.94611853 1352 461.5
5.2876477 3.4218855 -0.94402415 1149 460
5.3370228 3.4222882 -0.94440103 1187 459
5.3956127 3.4282603 -0.9463864 1212 458
5.4402313 3.4247148 -0.94563258 1204 457
5.4890847 3.4235158 -0.94555831 1240 456
5.5413723 3.4240816 -0.94599646 1215 455
5.5845475 3.4185071 -0.94466686 1201 454
5.6328187 3.4157586 -0.94415575 1152 453
5.687912 3.4168057 -0.94474363 1112 452
5.7465 3.4195092 -0.94581389 1060 451
5.7967439 3.4166846 -0.94529206 1071 450
5.8343225 3.4059067 -0.94247586 1110 449
5.8923612 3.4069459 -0.94307727 1067 448
6.0130754 3.4102316 -0.94464302 1042 446
6.0688238 3.4278388 -0.94113171 1079 445.5
6.1179247 3.4024644 -0.94302958 1160 444
6.183383 3.4248095 -0.94089723 1059 443.5
6.2352123 3.4390867 -0.93647671 969 443
6.299243 3.4402475 -0.93713796 905 442
6.3417087 3.4289806 -0.93426764 1024 441
6.3867998 3.4188454 -0.9317224 1009 440
6.480227 3.4168777 -0.93168068 918 438.5
6.5625319 3.4078722 -0.92964488 1002 437
6.6149821 3.4202509 -0.92419809 997 436.5
6.6845188 3.4210157 -0.9247669 979 435.5
6.7244272 3.4262271 -0.91734868 1059 435
6.7937374 3.4259443 -0.91764235 1202 434
6.8341599 3.431016 -0.90980363 1184 433.5
6.886167 3.441762 -0.90360069 1280 433
0.7776376 3.4784465 -0.93572813 2999 640
0.83030111 3.4779599 -0.94283468 2965 636.79999
0.87783104 3.4639988 -0.9452641 2941.75 633.75
0.92952025 3.475785 -0.94014275 2894.75 630.75
0.97462273 3.4721055 -0.94370496 2904 628
1.0250548 3.472218 -0.9469161 2853.3335 625
1.1285866 3.4642129 -0.94666898 2958.25 618.75
1.1734124 3.4726744 -0.94492829 2887.5 616.25
1.2199177 3.4800498 -0.94434184 2902.6667 613.66669
1.2709419 3.4738691 -0.94056398 2952 610.60004
1.3357871 3.4786835 -0.94457519 2881.6667 607
1.3732861 3.4861181 -0.94106263 2882 605
1.4242036 3.4791818 -0.93939322 2968.6667 602
1.4763979 3.4748769 -0.93846738 2970.3335 599
1.5152054 3.4694457 -0.92542905 2955.6667 596.66669
1.5738587 3.4829979 -0.92800993 2919.5 593.75
1.6352502 3.4623859 -0.93141162 2840 590
1.6758504 3.4703197 -0.93237633 2830 588
1.7304966 3.4647622 -0.93699539 2854.3335 585
1.7808138 3.4774342 -0.93020344 2854.2 582.60004
1.8301611 3.4755456 -0.93169922 2849 580
1.8751137 3.489841 -0.92713112 2862.6667 578
1.9268861 3.4947314 -0.92875218 2798 575.5
1.9885986 3.4563618 -0.93602467 2767 571.5
2.0272121 3.4535663 -0.93544865 2836 569.5
2.0697219 3.4647455 -0.93291438 2882.6667 567.66669
2.1240773 3.4624689 -0.9384591 2885.3335 565
2.1828103 3.4739218 -0.94197959 2866 562.5
2.2233591 3.4712901 -0.94145983 2867.5 560.5
2.28093 3.4955044 -0.94854653 2790.5 558.5
2.3267407 3.4823108 -0.9450981 2870 556
2.3747139 3.4887595 -0.94716007 2847 554
5.1715636 3.4928093 -0.94556141 1386.5 464.5
5.2209444 3.4783137 -0.94184047 1356 463
5.2694302 3.4788709 -0.9422527 1188 462
5.330019 3.4708202 -0.94036335 1239.5 460.5
5.3997974 3.4681809 -0.94001067 1142 459
5.452775 3.4701252 -0.94082826 1137 458
5.5282974 3.4696388 -0.94109809 1195 456.5
5.5898423 3.4594073 -0.93861431 1179 455
5.6532707 3.4662187 -0.94082564 1143 454
5.7017365 3.4631779 -0.94024873 1142 453
5.7646079 3.4685977 -0.94207454 1134 452
5.8377767 3.4797242 -0.94552416 1100 451
5.8679323 3.4642568 -0.94143331 1098 450
5.9243999 3.4643214 -0.94175285 1179 449
5.9622326 3.4528995 -0.93881512 1078 448
6.0205765 3.4532228 -0.93921578 958 447
6.1350284 3.4511142 -0.93924767 1030 445
6.2219677 3.488483 -0.93145192 983.5 444.5
6.2913265 3.4755533 -0.92833608 905 443
6.3823299 3.4914372 -0.9331041 857 442
6.4145927 3.4740598 -0.92859125 828 441
6.4781313 3.473583 -0.92880177 917 440
6.5339384 3.4683931 -0.92770028 939 439
6.5819521 3.4585881 -0.92531306 828 438
6.7782063 3.4954588 -0.9172101 1057 436
6.8247905 3.4856248 -0.90579903 1042 435
0.79438031 3.5252826 -0.93996048 2965 639.5
0.83406001 3.5187445 -0.92951393 2897 637
0.87252629 3.5258126 -0.93875039 2935 634.79999
0.92146105 3.5367627 -0.93493402 2934 632
0.97873592 3.5152903 -0.94114542 2898.3335 628.33337
1.0313967 3.5282307 -0.94026995 2832 625.40002
1.0779912 3.5266616 -0.94485587 2902 622.66669
1.1264062 3.5250707 -0.93990988 2914 619.79999
1.1761974 3.5314214 -0.93482703 2926.6667 617
1.2177341 3.522876 -0.94156116 2886 614.5
1.2735956 3.535183 -0.93638146 2910.75 611.5
1.3245846 3.5288606 -0.9349159 2893.5 608.5
1.377234 3.5265915 -0.93457347 2900.5 605.5
1.4353876 3.5148048 -0.92694551 2932.25 602
1.4792142 3.5268819 -0.92393488 2920.8 599.79999
1.5273476 3.5192957 -0.92089456 2964.6667 597
1.5766089 3.5287509 -0.91751957 2887.5 594.5
1.620266 3.519546 -0.9245705 2826 592
1.689328 3.5269561 -0.92693651 2849 588.5
1.7235711 3.5315177 -0.92649883 2851.8 586.79999
1.7571946 3.5291533 -0.92790264 2869.5 585
1.8436718 3.5499256 -0.92465353 2833 581
1.8772128 3.5380116 -0.92162049 2837 579
1.9209394 3.5460746 -0.92402762 2928 577
1.9747138 3.5178356 -0.9290961 2805.3335 573.66669
2.0208085 3.5261693 -0.93038219 2759.2 571.60004
2.0662153 3.5102103 -0.93375176 2885 569
2.1131301 3.5020289 -0.9317534 2918 566.5
2.1716957 3.5233138 -0.93321836 2893.75 564.25
2.2253551 3.5144262 -0.93576109 2796.5 561.5
2.2792759 3.5325394 -0.94102848 2821.5 559.5
2.3259544 3.537626 -0.94267619 2788 557.5
2.366065 3.5315354 -0.94121623 2845.5 555.5
2.4085407 3.5458295 -0.94537264 2787 554
4.990746 3.5099304 -0.94930178 1336 469
5.0707774 3.5028851 -0.94779271 1378 467
5.1141176 3.5012228 -0.94756728 1453 466
5.2118716 3.5419607 -0.94047964 1378 465
5.2620478 3.5439532 -0.94128454 1378 464
5.3154516 3.5312691 -0.93814993 1295 462.5
5.3894477 3.5318406 -0.93869877 1266 461
5.4399991 3.5325055 -0.93914783 1296 460
5.4815702 3.5268366 -0.9378413 1139 459
5.5066233 3.5100918 -0.93346047 1092 458
5.563201 3.5135765 -0.93470192 984 457
5.6182456 3.5155859 -0.9355374 1055 456
5.6759195 3.518785 -0.93670768 978 455
5.7387552 3.5247185 -0.93864268 1180 454
5.789144 3.5223579 -0.9382751 1124 453
5.8126483 3.5030477 -0.9331944 1070 452
5.8884859 3.5155332 -0.93696523 1152 451
5.9289503 3.5059681 -0.93460232 1144 450
6.000031 3.5144093 -0.93725747 1034 449
6.0874882 3.5318975 -0.94243908 1148 448
6.1068664 3.5086665 -0.93627924 1096 447
6.1678276 3.5294766 -0.93252969 1018.5 446.5
6.2280855 3.5495491 -0.92856723 972 446
6.3461123 3.5468049 -0.92847127 796 444
6.4219394 3.536305 -0.92610157 787 442.5
6.5065646 3.5298629 -0.92485082 754 441
6.5572858 3.5218606 -0.92300719 859 440
6.6254954 3.5229406 -0.92365605 834 439
6.6807251 3.5164847 -0.92224491 872 438
6.7275896 3.5257561 -0.91575742 939 437.5
6.792099 3.5441091 -0.91178232 990 437
6.8256345 3.5250671 -0.90702891 982 436
0.81593692 3.5526085 -0.93872625 2949.5 638.5
0.87930357 3.579669 -0.92752641 2912.6667 635
0.93311298 3.592669 -0.9313184 2879 632
0.97997189 3.571969 -0.93540889 2878.5 629
1.020022 3.5973978 -0.93305707 2800 627
1.0789473 3.5541081 -0.94054389 2849 623
1.11896 3.5786242 -0.92852354 2895.3335 621
1.1744361 3.5890203 -0.93162239 2965 618
1.2276741 3.574578 -0.93272161 2891.5 614.75
1.2797465 3.5859418 -0.93135428 2898.6667 612
1.3240678 3.5847006 -0.93125629 2909 609.5
1.375538 3.5771832 -0.92950416 2894 606.5
1.4248507 3.5631399 -0.92598116 2912 603.5
1.4803021 3.5938506 -0.91496909 2929 601
1.5267723 3.5683022 -0.918145 2923 598
1.5675869 3.579766 -0.9117136 2873.3335 596
1.6055121 3.5807655 -0.91217971 2917 594
1.6633558 3.5563545 -0.92542458 2790 590.5
1.7251976 3.5929744 -0.91604257 2779.3335 588
1.7783793 3.5805354 -0.91949314 2840 585
1.8250855 3.5749314 -0.92149127 2837.25 582.5
1.8837841 3.5963771 -0.91778666 2788 580
1.9343302 3.5749803 -0.92208838 2876 577
1.9648515 3.5754447 -0.92238081 2892.5 575.5
2.0260115 3.5972061 -0.91876358 2856 573
2.0766997 3.5712633 -0.93164968 2799.3335 570
2.12113 3.557668 -0.92822146 2831.5 567.5
2.1747167 3.5593491 -0.92896068 2820 565
2.2365031 3.5738006 -0.93318653 2857 562.5
2.2811494 3.5761199 -0.93405008 2839.5 560.5
2.3229482 3.5729735 -0.93342483 2830.5 558.5
2.3637283 3.5853152 -0.93696982 2749 557
2.4363196 3.5540435 -0.94777906 2849 553
4.9073081 3.582459 -0.94977295 1491 473
5.0748105 3.5754919 -0.9487884 1412 469
5.1110525 3.5688753 -0.94719797 1238 468
5.1670885 3.5596271 -0.94500357 1370 466.5
5.2386098 3.5986092 -0.9362542 1398 466
5.2678275 3.5859561 -0.93306738 1428 465
5.334836 3.582571 -0.93253028 1274 463.5
5.4257021 3.57781 -0.93175679 1187 461.5
5.4844689 3.5670927 -0.92923886 1199 460
5.5517793 3.5780897 -0.93250257 1159 459
5.6240849 3.574764 -0.93200934 1125 457.5
5.733583 3.5603621 -0.92878842 1009 455
5.7856884 3.5592191 -0.92876416 941 454
5.8513384 3.5660684 -0.93092334 1091 453
5.9112577 3.5687964 -0.93196326 1077 452
5.965395 3.567477 -0.93190318 1038 451
6.0281057 3.5708888 -0.93313867 1042 450
6.0697136 3.5611265 -0.9307816 1051 449
6.1164584 3.5541105 -0.92917728 1140 448
6.2930579 3.5518508 -0.9295215 792 445
6.3488836 3.5887449 -0.92098427 809 445
6.4029441 3.5839489 -0.92002982 803 444
6.4821148 3.5929 -0.92276955 795 443
6.5329247 3.5852849 -0.92106766 891 442
6.6037436 3.5883517 -0.92223889 815 441
6.6555762 3.580406 -0.92045677 891 440
6.7240281 3.581073 -0.92099386 960 439
6.8321958 3.5888503 -0.9040215 1153.5 437.5
0.81844032 3.6130283 -0.93619537 2900.6667 639
0.85453314 3.6260042 -0.92994761 2903.5 637
0.93563145 3.6322696 -0.92876768 2838 632.33337
0.9871769 3.6447639 -0.92579067 2877.5 629.5
1.0295794 3.6204891 -0.92942119 2860 626.75
1.0767792 3.617939 -0.92899913 2894 624
1.1240096 3.632865 -0.92337656 2877.5 621.5
1.1753957 3.6273127 -0.92218375 2972 618.5
1.2257376 3.6174312 -0.91984165 2908.5 615.5
1.275224 3.6324708 -0.92407823 2893.6667 613
1.3243951 3.6173568 -0.92034769 2868.3335 610
1.3749586 3.6324029 -0.9245919 2829.5 607.5
1.4248966 3.6182854 -0.92112863 2849.5 604.5
1.4832263 3.6016021 -0.91703236 2940 601
1.5298576 3.629528 -0.91055393 2917.75 599
1.5745711 3.6249199 -0.90494359 2828.5 596.5
1.6283801 3.6277142 -0.91060817 2795.75 593.75
1.6756542 3.6127846 -0.9163115 2798.75 591
1.737253 3.6463881 -0.9113698 2775.5 588.5
1.7810209 3.6348236 -0.90860742 2806.6667 586
1.8213156 3.6209793 -0.91144103 2840.3335 583.66669
1.8654646 3.6226106 -0.91520792 2819 581.5
1.929756 3.620472 -0.91499281 2895.75 578.25
1.9780579 3.6263542 -0.91367519 2850.3335 576
2.0089786 3.6258838 -0.91682369 2848.5 574.5
2.0759797 3.6130598 -0.92321777 2830.6667 571
2.1249352 3.6068239 -0.92183143 2820.5 568.5
2.1755314 3.6214054 -0.92595291 2765.5 566.5
2.2308455 3.6241634 -0.92697632 2787 564
2.2802086 3.6157682 -0.92502165 2810.5 561.5
2.3286161 3.6230578 -0.92720532 2837 559.5
2.3747191 3.643738 -0.9329139 2745 558
2.4115851 3.60795 -0.94332767 2763.5 555.5
2.4784043 3.623462 -0.94786632 2675 553
2.504447 3.6280863 -0.94925201 2672 552
4.8472338 3.6395752 -0.94499028 1407 476
4.8809247 3.6327014 -0.94335395 1499 475
4.9162188 3.6268027 -0.94198382 1471 474
4.9657707 3.6313252 -0.94344258 1460 473
5.0264502 3.6271644 -0.94266677 1505 471.5
5.0880804 3.6230173 -0.94189972 1431 470
5.1172428 3.6112163 -0.93893772 1504 469
5.1664748 3.6136098 -0.93983239 1491 468
5.2101827 3.611656 -0.93954921 1345 467
5.350544 3.6483767 -0.93111575 1264 465
5.4110146 3.6397042 -0.92919135 1202.5 463.5
5.4601493 3.622678 -0.92504305 1114 462
5.5429821 3.6447046 -0.93118888 1130 461
5.5783501 3.63431 -0.92868483 1075 460
5.6244664 3.6307659 -0.92801231 1109 459
5.6756253 3.6301475 -0.92812443 1086 458
5.7227287 3.6264777 -0.92742467 1021 457
5.7844877 3.6294141 -0.93790734 975 456
5.906373 3.639842 -0.93186349 950 454
5.9896398 3.6218963 -0.92765862 974 452
6.0482202 3.6228261 -0.92821127 913 451
6.115396 3.6284573 -0.93002725 924 450
6.1807232 3.6146312 -0.92679399 929 448.5
6.2631207 3.6305165 -0.92140627 853.5 447.5
6.3197436 3.607605 -0.92571408 896 446
6.3779936 3.6465154 -0.91622967 797 446
6.4433584 3.648191 -0.91700196 829 445
6.6333213 3.6464338 -0.91756606 953 442
6.6549358 3.6216769 -0.9114033 939 441
6.7112451 3.6158905 -0.91023535 1063 440
6.763267 3.6073298 -0.90834105 1029 439
0.82818425 3.6691048 -0.92659551 2900.5 639
0.88681853 3.6601412 -0.92931801 2864 635.5
0.92422235 3.6751642 -0.92393422 2829 633.5
0.96288198 3.6521585 -0.92761457 2870 631
1.0215071 3.6816924 -0.92142123 2836 628
1.0712564 3.670795 -0.9141466 2859.6667 625
1.1282005 3.6847363 -0.91806054 2904.3335 622
1.1781701 3.6720941 -0.91505212 2908.3335 619
1.2241256 3.6755724 -0.9161976 2925.5 616.5
1.2709212 3.6806579 -0.91776383 2847.6667 614
1.3231852 3.6732669 -0.91612768 2889.3335 611
1.378662 3.6743455 -0.91670227 2846.6667 608
1.4310536 3.6779583 -0.90987283 2854 605.20001
1.4694264 3.6704364 -0.90946424 2873.3335 603
1.518321 3.676136 -0.90784562 2902 600.5
1.5704397 3.690732 -0.90188807 2879.3335 598
1.6074364 3.6875517 -0.90127826 2671 596
1.6788665 3.6712244 -0.90745068 2784 592
1.7248224 3.6731043 -0.90486073 2822.3335 589.66669
1.7761018 3.6940794 -0.90382999 2831 587.5
1.8251998 3.6925282 -0.90369773 2847 585
1.8816547 3.6826923 -0.90813255 2841 582
1.9121349 3.6587169 -0.91549373 2841 580
2.0340257 3.678627 -0.91124737 2833 574.5
2.0596237 3.6669312 -0.91170257 2826 573
2.1191559 3.6584101 -0.91651607 2849.6667 570
2.1751852 3.6632764 -0.91807473 2801.5 567.5
2.220793 3.6676559 -0.91945171 2827.5 565.5
2.2774522 3.6711233 -0.92065132 2746.3335 563
2.3260989 3.6785986 -0.92284644 2763 561
2.3692813 3.6944227 -0.92717469 2739.5 559.5
2.4201918 3.6622944 -0.93805814 2753.5 556.5
2.4793358 3.683253 -0.94390982 2715.5 554.5
2.5236855 3.6980233 -0.94804794 2779 553
4.5871305 3.6610944 -0.94928879 1612 483
4.6273837 3.661413 -0.94958746 1600 482
4.703526 3.6575499 -0.9489727 1640 480
4.8268185 3.656518 -0.94935715 1456 477
4.943697 3.6854322 -0.93854791 1453 475
4.9862928 3.684623 -0.93856508 1464 474
5.0194931 3.6764145 -0.93661571 1366 473
5.0820274 3.6730895 -0.93608737 1391.5 471.5
5.1487279 3.6720734 -0.93617916 1450 470
5.1700835 3.6542115 -0.93166649 1438 469
5.2347484 3.6673222 -0.93540639 1424 468
5.2698126 3.6587834 -0.93338144 1387 467
5.305706 3.6505876 -0.93144971 1260 466
5.4548459 3.6919339 -0.9228397 1218 464
5.501657 3.6899676 -0.92258996 1105 463
5.553463 3.6910102 -0.92312968 1175 462
5.6202722 3.6844344 -0.9218173 1080 460.5
5.6913714 3.6799259 -0.92105198 1011 459
5.7941842 3.6777585 -0.92104888 1018 457
5.863234 3.6873574 -0.92384994 980 456
5.9262114 3.6899147 -0.93490839 972.5 455
5.9642015 3.6812627 -0.92284113 1133 454
6.0135469 3.6768928 -0.92199534 984 453
6.071064 3.6923859 -0.93630743 920 452.5
6.1744585 3.6870878 -0.92543584 923 450.5
6.2558169 3.6824441 -0.92469078 925 449
6.3238726 3.6508913 -0.91705161 770 447
6.4568019 3.697593 -0.90877849 801 446
6.5260787 3.6592176 -0.92023772 833 444
6.5908899 3.6593633 -0.92061913 911 443
6.6887126 3.6825924 -0.90628994 1002 442
6.7486439 3.6787512 -0.90565568 1066 441
6.7964878 3.6677837 -0.90319014 1083 440
0.81659579 3.70186 -0.92083716 2840 640
0.87088573 3.7130785 -0.92403185 2860.6667 637
0.91370773 3.7093773 -0.9233011 2882 634.5
0.97520077 3.7097278 -0.92371911 2776 631
1.0362692 3.7476709 -0.91348696 2782 628
1.0747893 3.7235055 -0.90756404 2831.5 625.5
1.1186643 3.7202041 -0.90696001 2887.6667 623
1.1731682 3.7219751 -0.90769881 2905 620
1.2259071 3.7164946 -0.90658945 2879.3335 617
1.2748961 3.7274852 -0.90963674 2763 614.5
1.3179832 3.7184319 -0.90757012 2781 612
1.3721631 3.7143826 -0.9068312 2841.6667 609
1.409747 3.7154965 -0.90731353 2877 607
1.4795851 3.7010837 -0.90403003 2885 603
1.510767 3.7086596 -0.90611684 2854 601.5
1.6336582 3.7045722 -0.90573359 2701 595
1.6628197 3.7046647 -0.90591204 2767.5 593.5
1.8299265 3.7027271 -0.90630889 2815 585
1.9256845 3.7120981 -0.90919411 2845 580.5
1.9802439 3.7181759 -0.91102529 2862 578
2.0175695 3.7097244 -0.90908062 2846 576
2.0905805 3.7085249 -0.90916455 2838.5 572.5
2.1346874 3.7113001 -0.91010273 2825.5 570.5
2.1804214 3.716166 -0.91157973 2782 568.5
2.22928 3.7256372 -0.91424102 2765 566.5
2.2779884 3.7337117 -0.91654742 2744.5 564.5
2.3247628 3.737464 -0.91774744 2712 562.5
2.4237299 3.7091262 -0.9312728 2693 557.5
2.4727876 3.7323425 -0.93754703 2643 556
4.5840974 3.7289104 -0.94789505 1512 485
4.6221795 3.7275567 -0.94774717 1560 484
4.6695156 3.7169178 -0.94524354 1542 482.5
4.7268724 3.7139425 -0.9447782 1663 481
4.7721405 3.7171633 -0.94585335 1593 480
4.8105612 3.7145615 -0.94538397 1620 479
4.8710375 3.7122853 -0.94511628 1522 477.5
4.927774 3.7064342 -0.94390279 1413 476
4.9754729 3.7482991 -0.93458438 1426 476
5.0174546 3.7468646 -0.93444377 1432 475
5.0782146 3.7423682 -0.93362653 1416.5 473.5
5.11058 3.7160792 -0.92713243 1382 472
5.1894026 3.7237124 -0.92948699 1295.5 470.5
5.2493443 3.7166154 -0.92800599 1380 469
5.275713 3.7017424 -0.9243747 1251 468
5.3326664 3.7084904 -0.92638856 1324 467
5.3732758 3.7228975 -0.91971529 1228.5 466.5
5.4194751 3.7015009 -0.92507762 1194 465
5.6312242 3.7490211 -0.91714817 1125 462
5.7274075 3.7438469 -0.91637576 1204 460
5.7827663 3.7253661 -0.92250592 995.5 458.5
5.9357309 3.7390924 -0.91630262 966 456
6.0589046 3.7461154 -0.91869795 1127 454
6.1135616 3.7444887 -0.9185847 949 453
6.1523027 3.7325649 -0.91583377 929 452
6.2282381 3.7431648 -0.9188652 1068 451
6.2848921 3.7413661 -0.91871995 1044 450
6.3467445 3.7422223 -0.91926056 960 449
6.3831601 3.7274165 -0.91578263 972 448
6.4298129 3.7184136 -0.91379791 804 447
6.5749836 3.7107706 -0.91267335 833.5 444.5
6.6616797 3.7045698 -0.911596 941 443
6.783051 3.7402637 -0.90144157 1037 442
17.458918 3.7379737 -0.92892081 166 372
0.83879066 3.7772155 -0.91992897 2905 639.5
0.87913984 3.7586112 -0.9154259 2853.3335 637
0.93121982 3.7544811 -0.91465539 2863.3335 634
0.98148602 3.7690268 -0.91149294 2825.3335 631.33337
1.0106236 3.7665374 -0.91103429 2823.6667 629.66669
1.0550482 3.7512324 -0.91448981 2750 627
1.1171534 3.787148 -0.9026401 2876 624
1.1894695 3.7844279 -0.90234953 2872 620
1.2054151 3.7760665 -0.90036088 2758 619
1.2792766 3.7763841 -0.9008317 2784 615
1.3201365 3.7879019 -0.90390462 2741.6667 613
1.373091 3.7778306 -0.90168846 2799.5 610
1.4281909 3.7733505 -0.90086997 2839 607
1.484185 3.7704554 -0.90044934 2882 604
1.5133497 3.7716494 -0.90090024 2853 602.5
1.5796865 3.7685108 -0.90047413 2778 599
1.9211988 3.7717242 -0.9030838 2819.3335 582
1.9695928 3.7645507 -0.90156186 2831 579.5
2.0228868 3.7663271 -0.90228528 2856 577
2.1288915 3.7653451 -0.90260452 2788 572
2.1757565 3.7918606 -0.90942812 2736.5 570.5
2.2267518 3.7847614 -0.90793848 2789 568
2.2800844 3.7810373 -0.90729809 2789.5 565.5
2.3800864 3.7545109 -0.92236423 2702 560.5
2.422528 3.7679212 -0.92599022 2695 559
2.4549236 3.7830095 -0.92998844 2651 558
2.5158472 3.7651553 -0.93939489 2708.6667 555
2.5625744 3.7626035 -0.94586265 2752 553
4.6229982 3.7999487 -0.94580781 1475 486
4.6740341 3.79232 -0.94414467 1520.5 484.5
4.7213387 3.7811275 -0.94155794 1477 483
4.7736855 3.7734756 -0.93989587 1528.5 481.5
4.8268776 3.7660038 -0.93828398 1491 480
4.8608527 3.7594888 -0.93681258 1520 479
4.9215975 3.7568908 -0.93647665 1581 477.5
5.0794425 3.7995207 -0.92674106 1448 475
5.1361771 3.7913556 -0.9250176 1437.5 473.5
5.1890574 3.7797184 -0.92241275 1451 472
5.2402477 3.7834101 -0.92359984 1444 471
5.2740126 3.7738926 -0.9214192 1424 470
5.3189979 3.7722895 -0.92126048 1343 469
5.3688865 3.7738397 -0.92190963 1341 468
5.4423237 3.7570646 -0.91813993 1247 466
5.4924583 3.7774527 -0.91349924 1153.5 465.5
5.5390654 3.7752442 -0.91319633 1152 464.5
5.5877981 3.7741084 -0.91317451 1109.5 463.5
5.6874847 3.7521324 -0.91821837 1209 461
5.7465987 3.7967882 -0.9096663 1136 461
5.8357301 3.7651596 -0.91231132 1062 458.5
5.9038596 3.7540431 -0.91984069 942 457
6.0185556 3.7563946 -0.92103261 949 455
6.1318188 3.7969358 -0.91174453 956 454
6.2814832 3.7806125 -0.90857595 834 451
6.361165 3.7924864 -0.91188055 969 450
6.4155774 3.7884204 -0.91118211 961 449
6.4624033 3.7793961 -0.90923995 937 448
6.5306268 3.7826459 -0.9103905 921 447
6.5604525 3.7628734 -0.90574932 808 446
6.6348839 3.7687485 -0.90757 772 445
6.6716022 3.7523692 -0.90378898 881 444
6.7341967 3.7504323 -0.9036507 976 443
0.8406955 3.838762 -0.91397089 2873 640
0.87329471 3.8228462 -0.91019744 2878.6667 638
0.93264997 3.8072357 -0.90664172 2892.5 634.5
0.96848792 3.8072004 -0.90682316 2834 632.5
1.0395713 3.8028646 -0.90612543 2823.5 628.5
1.0799663 3.8193142 -0.91041869 2765.5 626.5
2.2133307 3.8454137 -0.90273601 2742 570
2.2784734 3.8420863 -0.90227377 2748.5 567
2.3259368 3.824111 -0.90815377 2774 564.5
2.3712399 3.8212624 -0.9177562 2725 562.5
2.4290485 3.8408594 -0.92292237 2679.5 560.5
2.4767237 3.8209181 -0.92892087 2670.5 558
2.5583756 3.8165095 -0.93903303 2725 554.5
2.6167872 3.8324366 -0.94338226 2738.5 552.5
4.4839249 3.8148351 -0.94884342 1573 490
4.5085535 3.8027344 -0.94590586 1585 489
4.5937867 3.8087947 -0.94789565 1570 487
4.7150354 3.8487477 -0.93701309 1550 485
4.768733 3.8423116 -0.9357022 1571 483.5
4.8080082 3.82354 -0.93125606 1514 482
4.875329 3.8269649 -0.93246269 1565.5 480.5
4.9212031 3.8125873 -0.92914104 1446 479
4.9896488 3.8154004 -0.93020195 1473 477.5
5.0380278 3.8018224 -0.92709196 1476 476
5.1312299 3.8440447 -0.91787404 1512 475
5.1744709 3.8424387 -0.91771346 1465 474
5.2307806 3.8329258 -0.91570294 1420.5 472.5
5.3204708 3.8300681 -0.91548491 1435 470.5
5.38625 3.825918 -0.91482633 1368 469
5.4243088 3.8185167 -0.91323167 1401 468
5.4607902 3.8097172 -0.91128916 1210 467
5.663168 3.830862 -0.90764898 1058.5 463.5
5.7007995 3.8011658 -0.9104861 1025 462
5.8118443 3.8252616 -0.90708762 1068.5 460.5
5.9155436 3.8225071 -0.90697658 1022.5 458.5
5.9753146 3.8052535 -0.91293371 1047 457
6.0357265 3.8082128 -0.91397226 971 456
6.1012907 3.8139277 -0.91570699 932 455
6.2060118 3.807086 -0.91460156 921 453
6.263555 3.8062394 -0.91470122 849 452
6.3217092 3.8469551 -0.90521139 807 452
6.4459133 3.848671 -0.90627688 847 450
6.4878097 3.8365636 -0.90362179 914 449
6.5720034 3.8305025 -0.90262735 977 447.5
6.6589632 3.8250949 -0.90180296 970 446
17.423363 3.8123064 -0.92695564 642.5 373
0.86859125 3.8950863 -0.90766311 2862 639
0.90042776 3.8729267 -0.90245324 2915 637
1.0810812 3.8648226 -0.90144396 2756 627
1.1018213 3.8738515 -0.90374547 2852 626
2.2457228 3.8638318 -0.90737826 2795 569
2.2871196 3.8574653 -0.90605247 2848 567
2.3693156 3.8617909 -0.90753818 2705.5 563.5
2.4350243 3.8945599 -0.91584039 2689.5 561.5
2.4960539 3.8547332 -0.92671824 2774 558
2.5377321 3.8835683 -0.93408942 2658 557
2.579113 3.8919783 -0.93639445 2725.5 555.5
2.6281266 3.8926716 -0.93682647 2788 553.5
2.6661377 3.8519046 -0.9485811 2426 551
4.2935562 3.8850174 -0.94376916 1639 497
4.3320374 3.8866158 -0.94436973 1712 496
4.4202414 3.898982 -0.94790429 1632 494
4.4787884 3.8832686 -0.94431877 1506 492
4.5249586 3.872951 -0.94200552 1578.5 490.5
4.5733986 3.8642077 -0.94009471 1582 489
4.6221976 3.8722553 -0.9423492 1568 488
4.6697307 3.8616452 -0.93997061 1562 486.5
4.7293139 3.8999023 -0.92930114 1592 486
4.8273516 3.8956304 -0.92878401 1570 483.5
4.8890638 3.8772612 -0.92465246 1540.5 481.5
4.9463744 3.8717954 -0.92362976 1542 480
4.9769106 3.8616843 -0.92133743 1530 479
5.0190959 3.8605587 -0.92128789 1395 478
5.0798016 3.8561831 -0.92054772 1403.5 476.5
5.1947875 3.8974934 -0.91125262 1416 475
5.2896852 3.8993981 -0.91220778 1341 473
5.3265948 3.8742528 -0.9064281 1262.5 471.5
5.3785496 3.8599768 -0.90331095 1299 470
5.4390903 3.8689849 -0.90577209 1276 469
5.4733057 3.8584588 -0.90345204 1222 468
5.5196147 3.856343 -0.90319455 1155 467
5.5708575 3.8573375 -0.9037022 1045 466
5.6238337 3.8591065 -0.90440315 1009 465
5.7268796 3.8592682 -0.90498722 1111 463
5.772831 3.8548968 -0.90419179 1047 462
5.8723469 3.8501611 -0.90359348 1043 460
6.0028586 3.8641508 -0.90760899 1046 458
6.0783157 3.85853 -0.90667295 959.5 456.5
6.1581182 3.8548524 -0.90622169 1002 455
6.226522 3.8614385 -0.90814894 864 454
6.2808132 3.8585713 -0.90775508 893 453
6.3879728 3.8506351 -0.90643674 862 451
17.415762 3.8929222 -0.92548484 403.5 374
0.89648211 3.9486635 -0.90064919 2895 638
2.3776307 3.9204874 -0.90179765 2692.5 564.5
2.4235473 3.9393227 -0.90651655 2717 563
2.4668548 3.9305751 -0.91466475 2715.5 561
2.5201859 3.9179595 -0.92197156 2713.5 558.5
2.5605185 3.9249809 -0.9238897 2668 557
2.6718059 3.9031777 -0.93966347 2722 552
2.7050235 3.9159434 -0.94300514 2677 551
4.075254 3.9145861 -0.94994223 1699 504
4.2057648 3.9045618 -0.94814938 1648 500
4.2767277 3.9033895 -0.94823539 1684 498
4.3908596 3.9261417 -0.94412637 1683.5 495.5
4.4157276 3.9341519 -0.93595171 1613 495
4.4729471 3.9270434 -0.94136208 1658 493.33334
4.5288744 3.9328153 -0.9362272 1662 492
4.583508 3.9466858 -0.93988353 1499 491
4.6264257 3.9323664 -0.93663543 1531 489.5
4.6796455 3.9092932 -0.93131721 1573.5 487.5
4.7793698 3.9075315 -0.9314183 1539 485
4.821754 3.9478238 -0.92123687 1508 485
4.8684435 3.9343886 -0.91829157 1435 483.5
4.9243431 3.9280703 -0.91708624 1398 482
4.9757571 3.9349461 -0.91899234 1443 481
5.0157595 3.9321787 -0.91854662 1533 480
5.0673637 3.9207551 -0.91610539 1493 478.5
5.1260376 3.9143691 -0.91489863 1494 477
5.1568832 3.9033151 -0.91243523 1295 476
5.2484818 3.9034009 -0.91294074 1388 474
5.2902117 3.9397223 -0.90212989 1264 474
5.3465681 3.9468656 -0.90408987 1289 473
5.3832693 3.9387846 -0.90240401 1186 472
5.4798946 3.938906 -0.90294337 1172 470
5.7106056 3.9244895 -0.90080982 1042 465
5.7761769 3.9339969 -0.90336859 986 464
5.9662285 3.9175413 -0.9005456 978 460
6.0349822 3.9265783 -0.90301168 926 459
6.0981293 3.931293 -0.90444267 964 458
6.1381664 3.9203975 -0.90211964 935 457
6.2492085 3.9175634 -0.90204769 975 455
6.317874 3.9237709 -0.90385503 886 454
6.3505707 3.9068165 -0.9000836 855 453
6.4135756 3.9084945 -0.90080732 774 452
6.4936175 3.9201026 -0.90393126 874 451
6.5382886 3.9094322 -0.90168518 817 450
0.86062759 3.9533107 -0.90156364 2867 640
2.4308941 3.9968789 -0.90030169 2718 564
2.4701169 3.9805789 -0.9065944 2724.5 562
2.5250766 3.9899378 -0.91908157 2648 560
2.577801 3.9967644 -0.92098296 2699 558
2.6154847 3.9543586 -0.93131173 2724.5 555.5
2.6743422 3.9691205 -0.93520689 2750.5 553.5
2.7136459 3.9719875 -0.93611115 2762 552
3.976541 3.9928324 -0.94786644 1595 509
4.0285697 3.9937756 -0.94837117 1625.5 507.5
4.141768 3.9853599 -0.94692868 1651 504
4.1737299 3.9820089 -0.94628477 1660 503
4.2160797 3.9711285 -0.9438684 1653.5 501.5
4.2592025 3.9605675 -0.94153357 1623 500
4.3156085 3.9621186 -0.94220912 1593 498.5
4.3628321 3.9544261 -0.94059235 1681 497
4.4392848 3.995333 -0.93050075 1593 496
4.584116 3.986861 -0.92925453 1617 492
4.6130881 3.9776227 -0.92721277 1625 491
4.6710587 3.9760845 -0.92715418 1514 489.5
4.73668 3.9804702 -0.92854393 1482 488
4.77808 3.9633708 -0.9246999 1470 486.5
4.9712725 3.9886532 -0.91182625 1411 482.5
5.0333686 3.9862227 -0.91158932 1425 481
5.0589328 3.9714384 -0.90828508 1463 480
5.1092162 3.9762294 -0.90966564 1461 479
5.1693449 3.9705038 -0.90865171 1483.5 477.5
5.2249122 3.9605989 -0.90664136 1429 476
5.2693291 3.9593048 -0.9065752 1348 475
2.4906323 4.0174508 -0.90540379 2790 562
2.5232198 4.0316758 -0.90888548 2690 561
2.5562487 4.0013671 -0.92196256 2604 559
2.6262627 4.0153871 -0.92566478 2747 556.5
2.6719055 4.0286393 -0.92905551 2773 555
2.7168045 4.0397863 -0.93194211 2715.5 553.5
2.7682135 4.0164618 -0.94719553 2714 551
4.1740217 4.0397167 -0.93964267 1630 504.5
4.2173319 4.0296469 -0.93747914 1658 503
4.2713223 4.0294313 -0.93771386 1602 501.5
4.3119278 4.0158043 -0.93469071 1625 500
4.3683209 4.0166759 -0.93519652 1610 498.5
4.411181 4.0042734 -0.93247634 1564 497
4.4896173 4.0265512 -0.92809308 1591.5 495.5
4.5320902 4.0301828 -0.92917079 1559.5 494.5
4.5624833 4.002532 -0.93286383 1495 493
4.6430407 4.044116 -0.92299318 1552 492
4.6648536 4.0280695 -0.91937548 1591 491
4.7249842 4.027832 -0.91963816 1555 489.5
4.7830715 4.0250959 -0.91930902 1503 488
4.8138704 4.0160966 -0.91737831 1422 487
4.8691483 4.0098753 -0.91622341 1471 485.5
4.9283442 4.0063262 -0.91571081 1389 484
5.0650396 4.0344276 -0.90250403 1389 481.5
5.122921 4.0275173 -0.90123713 1432 480
5.1649241 4.0252566 -0.90094453 1334 479
5.2186499 4.031918 -0.90274447 1399 478
2.5184159 4.0896511 -0.90161556 2733.5 562.5
2.5765171 4.0593147 -0.91559744 2666 559.5
2.6194456 4.0689664 -0.91807002 2742 558
2.67044 4.0906687 -0.92338872 2739 556.5
2.7128799 4.0978565 -0.9252854 2718 555
2.7812328 4.0801225 -0.94186807 2745 552
2.8189814 4.0981798 -0.94635886 2779 551
3.2841127 4.0979314 -0.94876301 1460 534
3.3201454 4.0884171 -0.946693 1432.5 532.5
3.7339163 4.0910378 -0.94950706 1519 519
3.7778511 4.0861387 -0.9485755 1563.5 517.5
3.8729558 4.0828505 -0.94829786 1642.5 514.5
3.9195325 4.07932 -0.94770557 1650 513
3.961484 4.0703278 -0.94579101 1582 511.5
4.0279913 4.068655 -0.94574559 1627.5 509.5
4.0742316 4.0630274 -0.94465333 1598 508
4.1216173 4.0579863 -0.94370633 1579.5 506.5
4.2088327 4.0970011 -0.93299979 1629 505
4.2841749 4.0821285 -0.92993838 1634.5 502.5
4.3278904 4.0711966 -0.92762625 1610 501
4.3838911 4.0893917 -0.93215555 1560 500
4.424964 4.0748949 -0.92900014 1566.5 498.5
4.4725199 4.0661516 -0.92721766 1650 497
4.5392852 4.0971975 -0.91401136 1549 496
4.5744042 4.0533023 -0.92476732 1511 494
4.6160355 4.0554266 -0.92548174 1571 493
4.7803903 4.0809917 -0.91159707 1512 489.5
4.8264699 4.0672255 -0.90870762 1502 488
4.8596897 4.0599594 -0.9072296 1510 487
4.9235559 4.0604401 -0.9076764 1484.5 485.5
4.9845629 4.0578237 -0.90740335 1409 484
5.0240684 4.054667 -0.90689367 1489 483
2.5619402 4.1011391 -0.90446007 2694 561
2.6171882 4.1310825 -0.91156667 2671 559.5
2.6737235 4.1412787 -0.91418594 2762 557.5
2.7163732 4.1485114 -0.91605735 2713 556
2.7709606 4.1285439 -0.93273199 2750 553.5
2.8236091 4.1496916 -0.93793035 2699 552
3.257304 4.100472 -0.94922477 1572 535
3.840354 4.1423736 -0.94160634 1617 517
3.8721492 4.1410513 -0.94146681 1657 516
3.9273005 4.1466541 -0.94306207 1674.5 514.5
3.9766169 4.1453018 -0.94300842 1637 513
4.0233989 4.1405716 -0.94215548 1594.5 511.5
4.0703192 4.1174278 -0.93701929 1624 509.5
4.1319885 4.1270599 -0.93958634 1633 508
4.1711311 4.1128569 -0.93648911 1645 506.5
4.2488909 4.101058 -0.93415546 1616 504
4.2916007 4.1482077 -0.9243117 1653 504
4.323524 4.1435151 -0.92341238 1616 503
4.3675914 4.1323071 -0.92109454 1585 501.5
4.4188037 4.1275973 -0.92029327 1562 500
4.4687152 4.1209984 -0.9190551 1634 498.5
4.5093226 4.1052327 -0.91568172 1521 497
4.5845404 4.1030135 -0.91557407 1645 495
4.6284704 4.107192 -0.91675717 1572 494
4.6703224 4.1090889 -0.91741008 1526 493
4.7255554 4.1044793 -0.9166528 1549.5 491.5
4.7757788 4.1358175 -0.90274292 1571 491
4.8217311 4.1400533 -0.90392768 1496 490
4.8726044 4.12991 -0.90193999 1445.5 488.5
4.9355545 4.1296415 -0.90221244 1377 487
4.9766293 4.1282425 -0.90211809 1457 486
5.0506582 4.1176567 -0.90015399 1434 484
2.6127293 4.1909695 -0.9035942 2679 561
2.7766471 4.1826601 -0.92414749 2754.5 554.5
2.8268027 4.1997705 -0.92830664 2671 553
2.8659687 4.1741414 -0.94384259 2642 551
3.3126397 4.1584597 -0.9425571 1435.5 534.5
3.3831711 4.1736207 -0.94645739 1428.5 532.5
3.4332321 4.1803579 -0.94828963 1447 531
3.5690451 4.1788306 -0.94865274 1451.5 526.5
3.6194115 4.16467 -0.94562471 1486.5 524.5
3.6790724 4.1608071 -0.94504166 1457 522.5
3.7292743 4.163599 -0.94595671 1497 521
3.7596045 4.16149 -0.9456265 1487 520
3.8159661 4.1701336 -0.94793558 1577.5 518.5
3.9184768 4.1969309 -0.93342876 1600 516
3.9880474 4.1991076 -0.93429178 1622 514
4.0377011 4.178853 -0.92994457 1621 512
4.0844069 4.1733065 -0.92892903 1605 510.5
4.135324 4.1716304 -0.92881662 1640 509
4.1780562 4.1791997 -0.93076503 1660 508
4.2240801 4.1713753 -0.92922747 1614.5 506.5
4.2638979 4.1568971 -0.92614293 1679 505
4.3350096 4.196136 -0.91383392 1685 504
4.3803787 4.1859541 -0.91180855 1583 502.5
4.4477849 4.196713 -0.91455758 1600 501
4.4850669 4.1959677 -0.91458851 1564 500
4.5163822 4.170948 -0.90918839 1541 498.5
4.5796318 4.157443 -0.90651798 1564.5 496.5
4.6391134 4.1578951 -0.90693265 1534 495
4.6971498 4.1744938 -0.91093123 1553 494
4.7290106 4.1668253 -0.90939355 1527 493
4.7564712 4.1550083 -0.90690988 1561 492
2.6446407 4.2021198 -0.90624297 2772 560
2.6726162 4.2063665 -0.90733528 2767 559
2.7222311 4.2245369 -0.91163898 2730 557.5
2.7633166 4.2281404 -0.91265744 2699 556
2.8659854 4.2194018 -0.93298143 2735 552
2.9178865 4.2372913 -0.93732703 2478.5 550.5
3.3546925 4.2372341 -0.93962216 1401 535
3.52666 4.2451143 -0.94232422 1529.5 529.5
3.6021616 4.242712 -0.94217646 1557 527
3.6751857 4.2357612 -0.94098043 1466 524.5
3.7379766 4.2344303 -0.94100928 1455.5 522.5
3.7957418 4.2450314 -0.9437272 1381 521
3.8349462 4.2335801 -0.94132829 1516.5 519.5
3.879658 4.209404 -0.9360624 1597.5 517.5
3.9578762 4.2032189 -0.93506801 1664 515
4.0283289 4.2056446 -0.93599236 1691 513
4.0997829 4.2498517 -0.92454112 1570 512
4.1296272 4.2442689 -0.92345673 1565 511
4.1703463 4.2312741 -0.92078114 1560 509.5
4.2241244 4.2314334 -0.92110044 1608 508
4.266654 4.2194395 -0.91865695 1648 506.5
4.3105989 4.2085147 -0.91645873 1636 505
4.5242538 4.2383399 -0.90250158 1485 500
4.5689354 4.2440071 -0.90396887 1497 499
4.6243339 4.2407413 -0.90355122 1439 497.5
4.6813154 4.238349 -0.9033317 1419 496
4.7257028 4.2422333 -0.90440989 1461 495
4.7541385 4.2311592 -0.90215307 1497 494
2.6978364 4.2951865 -0.90522629 2736 560
2.720082 4.2891335 -0.90402806 2729 559
2.7510631 4.2972116 -0.90594709 2721 558
2.8225198 4.2595329 -0.91995299 2727.5 554.5
2.8731494 4.2763739 -0.92396647 2660 553
2.9072883 4.2875972 -0.92664319 2601 552
3.3988976 4.2560749 -0.94414365 1387 534
3.425199 4.2513371 -0.94320434 1461 533
3.4741526 4.2559047 -0.94450259 1434.5 531.5
3.5874593 4.2628875 -0.94669038 1470 528
3.6431465 4.2543154 -0.94503373 1382 526
3.7383308 4.2966723 -0.93304831 1420 524
3.7671168 4.2924166 -0.9322536 1389 523
3.870522 4.297965 -0.93403357 1531 520
3.9182479 4.2762585 -0.92945707 1580 518
3.9839978 4.2741127 -0.92932677 1674 516
