# .PCD v0.7 - Point Cloud Data file format
VERSION 0.7
FIELDS x y z intensities index
SIZE 4 4 4 4 4
TYPE F F F F F
COUNT 1 1 1 1 1
WIDTH 1174
HEIGHT 1
VIEWPOINT 0 0 0 1 0 0 0
POINTS 1174
DATA ascii
14.469114 -9.3861523 2.3577981 576 186
14.461218 -9.2815285 2.3808687 564 187
14.470281 -9.200057 2.3596175 575 188
14.466329 -9.0993929 2.381258 562 189
14.476952 -9.0198622 2.3600841 600 190
14.510696 -8.9441996 2.3848879 536 191
14.492648 -8.8477125 2.3588769 601 192
14.486695 -8.747776 2.3788097 582 193
14.495495 -8.6578398 2.3982596 635 194
14.515014 -8.6806374 2.360131 589 194
14.517467 -8.5872507 2.3783002 614 195
14.497271 -8.4862957 2.3724844 618.5 196
14.522676 -8.4127522 2.3737745 640 197
14.528015 -8.3278589 2.3711572 597 198
14.552688 -8.2544785 2.371424 365 199
14.593654 -7.2383881 2.3795273 319 211
14.599167 -7.1648383 2.3549397 573 212
14.601828 -7.1548691 2.3903012 639 212
14.606947 -7.0815206 2.3653843 685 213
14.617906 -6.9995852 2.3771157 695 214
14.621792 -6.9203463 2.369689 563 215
14.634799 -6.5114412 2.3712881 359.5 220
14.636302 -6.4282622 2.375701 640 221
14.661441 -6.3615298 2.3675606 741 222
14.648746 -6.3447919 2.3961592 772 222
14.663568 -6.2792988 2.370939 757 223
14.659847 -6.194344 2.3744049 790 224
14.688103 -6.1293468 2.366142 719.5 225
14.706939 -6.0605521 2.3561208 760 226
14.683175 -6.0396705 2.3812475 731 226
14.690204 -5.9607162 2.3833344 534 227
14.69906 -5.6528921 2.3525219 358 231
14.694447 -5.6402035 2.3784945 323 231
14.690412 -5.5591784 2.3748112 599 232
14.714443 -5.5792561 2.3522372 585 232
14.736915 -5.5084977 2.3525243 634 233
14.703582 -5.4845543 2.3744786 624 233
14.733124 -5.415801 2.3771706 673 234
14.736383 -5.3373961 2.3753722 671 235
14.73091 -5.2567272 2.3703854 617 236
14.721601 -5.2424679 2.393585 645 236
14.735595 -4.6888103 2.3866596 492 243
14.787523 -4.6360388 2.37252 689 244
14.787319 -4.5557065 2.3720953 526 245
14.792041 -4.5452118 2.3962574 575 245
14.793387 -4.4824529 2.3625281 234 246
14.822709 -4.4804783 2.3882728 249 246
14.800075 -4.3994379 2.3721535 193 247
14.796952 -4.3129725 2.3806522 530 248
14.800747 -4.3256898 2.3595564 550 248
14.793953 -4.2329416 2.3769846 781.5 249
14.827232 -4.1695795 2.3674812 507.5 250
14.800118 -4.1453247 2.3929541 447 250
14.763243 -3.6546781 2.371896 340 256
14.833257 -3.6837652 2.3644621 537 256
14.835908 -3.4317689 2.3708606 145 259
14.853237 -3.4244463 2.3903625 408 259
14.849959 -3.3565009 2.3653548 583 260
14.858635 -3.3692658 2.3509231 377 260
14.870201 -3.3494916 2.3853459 622 260
14.884601 -3.1857147 2.3836224 549.66669 262
14.880702 -3.1137428 2.3634329 806.5 263
14.876832 -3.0958288 2.3857851 736 263
14.893098 -3.0280299 2.368356 361 264
10.946067 -1.3922141 2.3622267 382 266
10.972272 -1.384003 2.3747554 562 266
11.015945 -1.3777597 2.3910809 615 266
8.4862089 -1.3153994 2.3857512 251 251
8.6160841 -1.3052549 2.3921573 263 252
8.697876 -1.3256748 2.3628492 361.5 253
8.7203264 -1.3127427 2.3782401 135 253
11.041254 -1.3391634 2.3623788 555.5 267
11.078175 -1.3272718 2.3796329 514 267
11.209356 -1.3187555 2.3623102 523 268
11.267713 -1.3146471 2.380703 503 268
8.1241922 -1.2920322 2.3994396 304 248
8.7596073 -1.2991564 2.3524592 153 254
11.378547 -1.2812718 2.3702867 398 269
11.45741 -1.2783103 2.3930285 682 269
11.426997 -1.1958942 2.3699269 494 270
11.494244 -1.1859417 2.3923945 627 270
11.445062 -1.0963451 2.3659418 525 271
11.473354 -1.0877687 2.3770413 508 271
11.513839 -1.0746024 2.3932111 571.5 271
11.542024 -0.96205896 2.3921652 591 272
11.587128 -0.84492975 2.3919716 532 273
11.600811 -0.83485991 2.398735 579 273
11.614956 -0.68942052 2.3941789 504 274
11.641129 -0.47374496 2.3994298 594.5 275
11.701905 -0.20083024 2.398227 428 276
11.691123 -0.17831054 2.3978631 489 276
11.246036 0.1468716 2.3848946 573 369
10.628972 0.18822308 2.3969309 752 372
10.759267 0.17733353 2.3780639 679 371
10.869686 0.193055 2.3772688 764 273
10.929682 0.16688474 2.3666229 665 370
11.048011 0.15734221 2.3926399 668 370
11.073438 0.18605331 2.371851 618 274
11.173718 0.177388 2.3938055 634 274
11.241107 0.16883534 2.3579373 598 275
11.263629 0.17780378 2.3619361 628 275
11.440873 0.16211741 2.3998666 488 275
11.65976 0.16392481 2.3925486 457.5 276
9.5634842 0.24981603 2.3710446 855 377
9.666419 0.24025777 2.3975003 782 377
10.09476 0.21752633 2.3668036 878 374
10.223733 0.20640509 2.3512518 849 373
10.447063 0.22153972 2.3779583 772 271
10.48511 0.22463004 2.3862686 774.20001 271
10.569908 0.21448857 2.3583179 826 272
10.691483 0.21510662 2.3852053 753 272
10.704177 0.20481588 2.3889463 751 272
10.896077 0.20357831 2.3820925 683 273
8.7602444 0.29267728 2.3696861 1007 382
8.8824615 0.29249984 2.3615534 1043 381
9.0062075 0.284563 2.3955178 892 381
9.0599394 0.28224877 2.3680913 975 380
9.1787605 0.27218735 2.3791175 944.5 379.5
9.4009609 0.26100573 2.3728826 932 378
9.4562531 0.25060308 2.3879638 705 378
7.8551974 0.34589359 2.3746457 1319 389
7.9343443 0.34465796 2.3614054 1419 388
8.0091085 0.33642474 2.3850915 1241 388
8.066308 0.33988822 2.3636489 1323 387
8.1670818 0.32666534 2.3953505 1175 387
8.2806749 0.31167927 2.353066 1240 385
8.533452 0.3050622 2.3861856 1030 384
8.57061 0.3021923 2.3569462 1117 383
6.8699932 0.39911664 2.3950598 1411 399
6.9398079 0.3981618 2.3861623 1535 398
6.9945264 0.39629108 2.3716147 1559 397
7.0293393 0.39327565 2.3500419 1629 396
7.1080217 0.38676077 2.3779418 1533 396
7.1723189 0.3852933 2.3653772 1629 395
7.2700176 0.37671489 2.3819938 1525 394.5
7.4323616 0.36677164 2.3839822 1345 393
7.4825969 0.36446989 2.3648219 1404 392
7.6473656 0.35679552 2.3822424 1435 391
7.6938696 0.35424733 2.3606329 1437 390
6.0435972 0.44828558 2.3613832 1812 408
6.0919652 0.44664925 2.3504941 1764 407
6.1217189 0.44189039 2.3940451 1860 408
6.1739535 0.43798777 2.3692172 1777 406.5
6.3523283 0.4305445 2.3932881 1697 405
6.4047518 0.4289701 2.3819416 1680 404
6.4581323 0.42739001 2.3705294 1708 403
6.5030761 0.42520303 2.3556614 1678 402
6.6265926 0.41884884 2.3862958 1646 401.5
6.7667255 0.40627751 2.3736353 1571.5 399.5
6.8537979 0.4038834 2.3550053 1602 398
5.4214516 0.49832654 2.3927565 1941.5 418.5
5.4804072 0.49565354 2.3773785 1973 417
5.51086 0.49301681 2.3629591 2010 416
5.5653973 0.48637164 2.3694077 1951.6667 415.33334
5.626317 0.47737664 2.3739791 1925 414.5
5.6840286 0.47114322 2.3710995 1853 413.5
5.7781167 0.46479434 2.3981609 1828 413
5.810626 0.46222934 2.3828304 1756 412
5.8699827 0.45911357 2.3636253 1775.5 410.5
5.9793568 0.45377687 2.3949687 1736 410
6.0063887 0.4506762 2.3762829 1759 409
4.6795187 0.54831469 2.3677616 2054 431.5
4.7591829 0.54665804 2.3843076 2012 430.5
4.8207874 0.54547071 2.3860159 2003.6667 429.33334
4.8685985 0.54530668 2.3753414 1931.5 428
4.9248838 0.53790128 2.3656673 1970.5 426.5
4.9693146 0.53193945 2.3894362 1858.5 426.5
5.0305271 0.52753413 2.3668826 1985 424.5
5.0861964 0.51924962 2.3825507 1981 424
5.1328773 0.51588839 2.3649158 2052.5 422.5
5.1886234 0.51331884 2.3509192 2087 421
5.2100387 0.50936455 2.3896427 2007 422
5.2503471 0.5079208 2.3813403 2065 421
5.3245101 0.50691825 2.3743582 2053 419.5
5.3787074 0.50390494 2.3578184 2089 418
4.0373836 0.59756982 2.3969018 2266 448
4.0731015 0.5918383 2.3721311 2207 446
4.1255813 0.58326387 2.3823044 2181.6667 445
4.1719384 0.57891214 2.3626742 2210 443
4.2315049 0.57616758 2.3992424 2213 443
4.2675524 0.57292461 2.3842635 2132 441.5
4.3253102 0.57247776 2.3809826 2225 440
4.3601146 0.57160145 2.3763573 2208 439
4.4272642 0.57208848 2.3769336 2239 437.5
4.4795814 0.56774408 2.356775 2226.5 435.5
4.5274973 0.5627569 2.3847284 2198 435.5
4.5672054 0.55670214 2.356792 2183.5 433.5
4.6277237 0.55306411 2.3906646 2071.5 433.5
3.1825628 0.64696753 2.3653984 2578.5 473.5
3.2799654 0.64302397 2.3805518 2537 470.66669
3.3238411 0.64436948 2.3767128 2521 469
3.3755805 0.64520669 2.3708844 2506.6667 467
3.4261501 0.64447969 2.3751307 2481.5 465.5
3.4783268 0.63998669 2.3808434 2537.6667 464
3.5258331 0.63472009 2.3596268 2564 461.5
3.569335 0.62968165 2.3751204 2511.75 460.75
3.6233633 0.62380946 2.3629427 2472 458.5
3.6895781 0.61493975 2.3766441 2419 457
3.7227025 0.6122241 2.3650486 2389 455.5
3.7830613 0.60756463 2.3956041 2319 455
3.8245645 0.60875344 2.3995743 2339 454
3.8682685 0.60470217 2.3820205 2361.6667 452
3.933135 0.60378671 2.3768585 2335 450
3.9851837 0.60621095 2.3856628 2272 449
4.0183187 0.6028837 2.3713059 2247.5 447.5
2.573688 0.69523764 2.372551 2705.75 499.5
2.6243522 0.68996954 2.3793144 2636.8 497.39999
2.6793211 0.68615019 2.3820882 2598.3335 495
2.7176027 0.68170798 2.3655884 2581 492.5
2.769609 0.68341875 2.3706741 2648.5 490.5
2.8334618 0.68779135 2.3849857 2580 488.5
2.8755894 0.68653208 2.379714 2579.5 486.5
2.9240434 0.68236059 2.3747518 2599.75 484.25
2.9753294 0.67983454 2.3797994 2572.2 482.39999
3.0218949 0.67507702 2.3682306 2606 480
3.0751579 0.66684836 2.3789477 2588 478.33334
3.1045198 0.65901423 2.3648973 2523.5 476.5
3.1646972 0.65437037 2.3936305 2541 475.5
1.6347849 0.74818134 2.3996243 2799.5 554.5
1.6778414 0.74754429 2.3968058 2845.5 551.5
1.7202045 0.74656093 2.3763871 2846.8572 547.85718
1.7735444 0.74163902 2.3650069 2807.2859 543.85718
1.8274766 0.73499757 2.3924983 2798.75 541.5
1.8717721 0.72718465 2.3659453 2806.75 537.5
1.9327445 0.72895736 2.3707089 2798.6667 534
1.9783599 0.72748458 2.3650417 2807.6667 531
2.0230043 0.72851127 2.3676353 2758 528.5
2.0778799 0.7268675 2.3695791 2764 525.40002
2.1269665 0.71717751 2.3697684 2744.5 522.5
2.178607 0.72226578 2.3650281 2738 519.5
2.2190034 0.71909076 2.3686905 2737.8572 517.42859
2.2685456 0.71030748 2.3761542 2705.25 515
2.3153658 0.70436686 2.3657162 2695 512
2.3721619 0.70705134 2.3738556 2682 509.5
2.4228182 0.71048295 2.3846631 2692 507.5
2.4626086 0.70883846 2.3675849 2704.75 504.75
2.5292897 0.70412272 2.3753686 2730.5 501.83334
0.82491529 0.79964787 2.3853738 2870.5 617
0.88536 0.79595828 2.3733509 2847 611.5
0.92365205 0.79521561 2.3765421 2811.1667 608.33337
0.97893 0.791471 2.3704529 2817.3335 603.5
1.0249444 0.79310167 2.3806219 2873.125 600
1.0702293 0.78835344 2.3775687 2971.3335 596.16669
1.1200484 0.78319889 2.3745725 2961.2 592
1.169229 0.77933162 2.3731482 2929 588
1.2244276 0.78248197 2.3818741 2932.625 584
1.274978 0.7785306 2.3751497 2917.5 579.83337
1.3229103 0.77667564 2.3748374 2854.5 576.16669
1.3793678 0.77367556 2.3771763 2922.8335 572
1.4286464 0.77115726 2.3810234 2917.4001 568.5
1.4777879 0.76787579 2.3699892 2915.1667 564.5
1.525234 0.75970441 2.3729501 2913.5715 561.14288
1.5717108 0.75659645 2.3765502 2901.1667 558
1.6226726 0.75324774 2.3774145 2889.25 554.5
1.6790539 0.75205868 2.3726509 2853.75 550.5
0.58393288 0.81798476 2.3780715 2825.2 638.20001
0.62928665 0.81696099 2.3835409 2758 634.22223
0.67697304 0.81077713 2.3668003 2807.25 629.625
0.72668952 0.81069279 2.3719995 2873 625.33337
0.7706964 0.80747473 2.3742547 2901.5 621.5
0.82106328 0.80427432 2.3698764 2873.1667 617
0.87391013 0.8016845 2.3766351 2832.6001 612.60004
0.90919936 0.8011561 2.3534102 2835 609
14.353746 -10.448317 2.4120536 265 174
14.378688 -10.361437 2.4406435 423 175
14.400805 -10.283481 2.4219098 466 176
11.414 -10.248152 2.4292943 109 150
14.424913 -10.207259 2.4035795 505 177
9.1911879 -10.153464 2.4184566 191 126
7.904407 -10.050963 2.4007945 978 110
9.2022552 -10.076853 2.4001024 265 127
14.419466 -10.099078 2.4294534 450 178
7.2063332 -10.020142 2.4484513 385 100
7.3350129 -10.013839 2.4462314 928 102
7.4612055 -10.002157 2.4427125 954 104
7.534668 -10.009598 2.4441383 976 105
7.5971513 -10.001672 2.4418733 1006 106
7.6863508 -10.028666 2.4479852 864 107
7.7366199 -10.003543 2.4415901 861 108
7.8083768 -10.006211 2.4418604 939 109
7.9620891 -10.022668 2.4450595 852 111
8.0343971 -10.024035 2.4450095 679 112
8.1068659 -10.02498 2.4448557 285 113
14.410986 -10.00091 2.4055512 546 179
7.2512107 -9.9900236 2.4408665 800 101
7.386796 -9.9926968 2.4407995 948 103
6.0717034 -9.9175062 2.4294322 786 83
14.414931 -9.9001331 2.4340389 509 180
6.1080017 -9.8788042 2.4197986 386 84
14.415901 -9.809845 2.4115238 544 181
3.8862484 -9.7873363 2.4092689 796 44
3.9265771 -9.762207 2.4029248 1397 45
3.9829218 -9.7777405 2.4064152 187 46
14.426169 -9.7140694 2.4416084 555 182
1.7829353 -9.6387072 2.4359376 1416 0
14.445827 -9.6374817 2.4219825 514 183
14.446099 -9.5363884 2.4472775 516 184
14.465694 -9.4605627 2.4274395 552 185
14.466625 -9.367012 2.4276745 542.5 186
14.469538 -9.2753515 2.4279618 585 187
14.471531 -9.1838341 2.4267802 558 188
14.468002 -9.0894089 2.4244056 566 189
14.484506 -9.0136528 2.40382 588 190
14.503121 -8.9277506 2.4283872 547 191
14.487584 -8.8329811 2.402318 591 192
14.511213 -8.836216 2.4483151 679 192
14.504468 -8.747426 2.4233932 572 193
14.493797 -8.6452208 2.4405091 564 194
14.512362 -8.5727129 2.4196432 591 195
14.511773 -8.4777546 2.4367609 582 196
14.530376 -8.4059439 2.4157178 572 197
14.520295 -8.306591 2.4297457 572 198
14.562146 -8.2487469 2.4123509 389 199
14.605164 -7.2327242 2.4167013 337 211
14.562661 -7.1994891 2.4463851 352 211
14.596503 -7.1403036 2.4257812 644 212
14.62607 -7.0729156 2.4227648 691 213
14.604532 -6.9752178 2.4283438 672 214
14.649936 -6.9161448 2.4263949 622 215
14.612742 -6.8127861 2.4261715 360 216
14.639921 -6.413075 2.4224174 593 221
14.650559 -6.3336062 2.4287248 734 222
14.666747 -6.2630386 2.4187436 735.5 223
14.673503 -6.1830683 2.4217587 772 224
14.677613 -6.1081295 2.4087224 724 225
14.674875 -6.0954008 2.4381802 767 225
14.682718 -6.0222883 2.4253716 688.5 226
14.686541 -5.9422255 2.425837 599 227
14.695958 -5.8593841 2.4399652 359 228
14.695369 -5.629508 2.4053485 316 231
14.722125 -5.6281056 2.4376094 214 231
14.733852 -5.5641437 2.4093678 588 232
14.707047 -5.5418081 2.4336011 512 232
14.717007 -5.4714336 2.4191418 615.5 233
14.735907 -5.404665 2.4058437 657 234
14.734979 -5.3925247 2.4326909 635 234
14.732203 -5.3186975 2.4138622 661.5 235
14.744407 -5.2331142 2.4361925 603 236
14.760546 -4.6801701 2.42383 484.5 243
14.77668 -4.6098194 2.4159472 706 244
14.809513 -4.5337214 2.4315934 596 245
14.827911 -4.4646549 2.4222593 277.5 246
14.837018 -4.3752356 2.4438653 164 247
14.794107 -4.2888956 2.4228065 523.66669 248
14.797278 -4.2112217 2.4184723 737 249
14.814865 -4.1317277 2.4265413 426.5 250
14.875412 -3.4862156 2.4343326 344 258
14.871529 -3.4117846 2.4178896 727.5 259
14.881156 -3.3961477 2.4450879 713 259
14.88466 -3.3410213 2.4044597 538 260
14.854004 -3.1567233 2.409256 719 262
14.874777 -3.1435394 2.4360528 658 262
14.874898 -3.0837483 2.4009397 568 263
14.932936 -3.0842061 2.4254267 291 263
9.6691685 -1.4168999 2.4470668 203 257
11.073833 -1.4156682 2.4443846 471 265
9.6840706 -1.373244 2.4252496 305.66669 258
11.045062 -1.3694692 2.4043362 571 266
11.06059 -1.3601201 2.4142261 548 266
11.114941 -1.3557197 2.4323165 559 266
8.2731304 -1.3042148 2.4494095 382 248
8.4269056 -1.3140024 2.4107494 224 250
8.5881481 -1.3200716 2.4204299 243 251
8.6357841 -1.3104594 2.4431264 190 251
9.6667624 -1.3481483 2.4339848 255 258
11.138234 -1.3472983 2.4437544 594 266
11.16853 -1.3270025 2.4051144 534 267
11.260832 -1.3268193 2.4310217 558 267
11.346494 -1.3128201 2.4033451 527 268
11.45737 -1.3141602 2.4329348 638 268
7.4025307 -1.2583292 2.4283738 158 241
8.057518 -1.2993162 2.4140851 216 247
8.6513815 -1.2995855 2.4080052 162 252
11.482723 -1.2697858 2.4044297 736 269
11.522641 -1.2573092 2.4217417 884.5 269
7.3997149 -1.2465299 2.4334357 174 241
7.4091005 -1.2367873 2.4424169 102 241
11.561584 -1.2446506 2.4387538 965 269
11.528355 -1.1659851 2.4111874 799.5 270
11.560515 -1.1513678 2.4266119 872 270
11.575134 -1.1413641 2.4351804 902 270
11.567984 -1.062245 2.4122589 658 271
11.566681 -1.0317073 2.4253983 862.66669 271
11.601151 -1.0305752 2.4344513 812 271
11.605496 -0.9559291 2.4098113 648 272
11.583035 -0.92431039 2.4170618 766.25 272
11.627956 -0.88675404 2.4420481 895 272
11.599833 -0.81123388 2.4068115 670 273
11.626225 -0.8132636 2.4121113 671.5 273
11.636325 -0.76865089 2.4293728 766.66669 273
11.648706 -0.73483413 2.4428971 824 273
11.66239 -0.72373921 2.4493802 849 273
11.641536 -0.66184819 2.4079754 580.33337 274
11.638926 -0.63864195 2.413842 689 274
11.658168 -0.61662853 2.423892 683 274
11.67382 -0.57977539 2.4365823 802 274
11.68393 -0.5499326 2.4459033 877 274
11.67981 -0.47536319 2.4072108 547.5 275
11.672172 -0.4230814 2.4155989 649.20001 275
11.686664 -0.37240836 2.4271984 719 275
11.690581 -0.32153183 2.4354677 753 275
11.708206 -0.33342218 2.4375124 802.5 275
11.688622 -0.29819411 2.4381294 750 275
11.710819 -0.27462295 2.4455707 760 275
11.712359 -0.1714631 2.4026456 503.33334 276
11.699944 -0.11214589 2.4037573 635 276
11.722631 -0.12078922 2.4163356 566 306.66669
11.721475 -0.075410329 2.4240594 580.42859 328.57144
11.752872 -0.05251649 2.4165673 611 276
11.715883 -0.023366155 2.4203868 538.57147 315.42859
11.771412 -0.0010396064 2.4463873 404 368
11.721606 0.028308537 2.4201226 490.875 310.5
11.697984 0.094345488 2.404144 473 276
11.723763 0.074335501 2.4227505 458.66669 322
11.058228 0.14777492 2.4455206 584 371
11.113531 0.14688179 2.407352 631 370
11.298357 0.13754144 2.447484 618 370
11.439842 0.13771275 2.4260607 565 369
11.716362 0.13287771 2.4059763 480.25 276
11.754831 0.10643341 2.4151452 487 276
10.473357 0.19955206 2.4088418 759 373
10.800757 0.18016247 2.4359608 703 372
10.859443 0.19847177 2.423877 764 272
10.939034 0.16901407 2.4180269 603 371
10.970079 0.19246043 2.4239466 695.25 272.5
11.019148 0.15875031 2.4362664 701 371
11.075437 0.18104486 2.4228253 597.5 273
11.187354 0.16833961 2.4480126 607 273
11.254434 0.16430809 2.4118817 628 274
11.351291 0.17332949 2.431776 585 274
11.57405 0.1716547 2.4268229 555 275
11.701905 0.15676229 2.4015942 456 276
11.752872 0.15105142 2.4123075 484 276
9.6958494 0.244223 2.4489799 831 378
9.9818192 0.23220289 2.4304087 888 376
10.229555 0.22321168 2.444443 869 375
10.331692 0.22291863 2.4337535 841.5 321.5
10.391655 0.22841208 2.4121344 805.33337 270
10.433237 0.228653 2.421711 809 270
10.487976 0.2244447 2.4347489 791.5 270
10.564619 0.22028774 2.4046686 728.5 271
10.688027 0.22098283 2.432524 805 271
10.759243 0.21174441 2.4494693 637 271
10.855536 0.20857246 2.422142 687 272
8.7376785 0.29998228 2.4441829 1066 384
8.7934093 0.29776442 2.4190247 987 383
8.9968252 0.28818947 2.4343996 989 382
9.1657238 0.27746433 2.4388466 869 381
9.3009396 0.26556918 2.4330795 846 380
9.3684349 0.26376787 2.4076021 838 379
9.4827728 0.25470221 2.4379432 757 379
8.0074005 0.34080774 2.421874 1197 389
8.1988926 0.33224449 2.4426932 1287 388
8.3330326 0.31991905 2.4257102 1085 386.5
8.523138 0.30883515 2.4227195 1055 385
7.0849166 0.39276624 2.4206512 1373.5 397.5
7.2341027 0.3820174 2.4216266 1342 396
7.4210782 0.37090531 2.4153242 1309 394
7.5903292 0.35881868 2.4002092 1277 392
7.6056371 0.36412984 2.4407337 1237 393
7.8382702 0.35199943 2.4244504 1306 390.5
6.0877895 0.44953036 2.4405267 1658 410
6.1261535 0.44724482 2.425745 1765 409
6.2913303 0.43646336 2.4315834 1758 407
6.3269873 0.43386561 2.4144912 1773 406
6.4729109 0.42661119 2.4405882 1580 405
6.5340395 0.42306063 2.4160576 1597.5 403.5
6.7177715 0.41324779 2.4209013 1597 401.5
6.872787 0.40413767 2.4288454 1465 400
5.4886894 0.49500424 2.438765 1837 419
5.5250244 0.49034458 2.4130578 1917 417.5
5.6346049 0.48000166 2.4208007 1904 416
5.7587023 0.47092569 2.4330969 1844 414.5
5.9445281 0.46135533 2.4396973 1754 412
5.9522719 0.45684475 2.4134667 1732 411
4.6798487 0.54829848 2.4201734 2006 433.5
4.7368293 0.54682159 2.4118862 1973 432
4.845057 0.54269993 2.4438922 2012 431
4.877882 0.53826261 2.4218986 1922.5 429.5
4.93121 0.53597409 2.4096415 1968 428
5.0208464 0.52857292 2.4298162 1947 427
5.072166 0.5231753 2.4021053 1965 425
5.1640482 0.51547825 2.4215155 2012.6667 424
5.3235846 0.50516796 2.4306796 1960 421.5
5.3616204 0.5007987 2.4071219 1922 420
4.0132265 0.59946561 2.4053686 2284 449
4.0816669 0.59327567 2.4260488 2278 448
4.1790633 0.58514285 2.4396052 2277 446
4.2070398 0.58091837 2.4205313 2259.5 444.5
4.3598332 0.57398021 2.4387264 2138 441.5
4.4136848 0.57014859 2.4203711 2175 439.5
4.4789085 0.56758469 2.407402 2227 437.5
4.5411162 0.56151694 2.4312916 2177 437
4.5710373 0.55707181 2.4103026 2176.5 435.5
4.6361613 0.55121106 2.434829 2149 435
3.2273452 0.64700556 2.4129596 2497 474
3.256923 0.64742798 2.4139781 2587 473
3.368531 0.6440289 2.4230919 2479.5 469.5
3.4137049 0.64122981 2.4356766 2395.5 468.5
3.4657292 0.63988626 2.4293189 2439.5 466.5
3.5292954 0.63766348 2.41927 2505.6667 464
3.5913835 0.62829924 2.4323089 2500 462.5
3.6192651 0.62216103 2.4071 2469.5 460.5
3.6763062 0.62092841 2.4009421 2438.5 458.5
3.7230222 0.61682737 2.4348722 2453.5 458.5
3.7684345 0.61337 2.4197154 2363.5 456.5
3.8924496 0.60837096 2.4453025 2397 454
3.9147875 0.60365486 2.4250767 2344 452.5
3.9727664 0.60158944 2.4151506 2290.5 450.5
2.4747298 0.6995765 2.4336467 2552 507
2.5150523 0.69940728 2.4322796 2603 505
2.583601 0.69520986 2.4160738 2625.6667 501
2.6368294 0.69244492 2.4492471 2514 500
2.670898 0.68991774 2.4394479 2489.3335 498
2.725122 0.68961215 2.437294 2493 495.5
2.7693172 0.68647647 2.4250982 2548.3335 493
2.822207 0.6852994 2.4198184 2550 490.5
2.8727562 0.68189919 2.4254303 2536.4001 488.60001
2.9229252 0.67908227 2.4306817 2533 486.75
2.9750724 0.67542362 2.4279919 2516 484.5
3.0214114 0.67175597 2.4135466 2567.3335 482
3.0732872 0.66463548 2.4244764 2503.2 480.39999
3.1368315 0.65967381 2.4141588 2517.5 477.5
3.1907771 0.65337741 2.4382007 2428 476.5
3.2198074 0.65100992 2.4285061 2476 475
1.6216227 0.74847603 2.4406044 2764 557
1.6707166 0.7486068 2.4322073 2726 553.40002
1.7190589 0.74504685 2.4275653 2770.3335 550
1.7740599 0.74222964 2.4172976 2781.8 546
1.8405747 0.73871607 2.4472611 2750 543
1.8772714 0.73729908 2.4418406 2756.75 540.5
1.9212523 0.72889733 2.4128354 2773.75 536.5
1.9768101 0.726659 2.4152157 2746 533.25
2.0181882 0.72619689 2.4195385 2744.4001 531
2.0804718 0.72859663 2.4089513 2722.3335 527
2.1274655 0.72409177 2.4366348 2628 525.5
2.1770804 0.71962351 2.4204404 2644 522
2.2200744 0.71573246 2.4063416 2679.6667 519
2.2932425 0.71264052 2.4384336 2614.5 516.5
2.3220985 0.70675039 2.4173694 2608 514
2.3698969 0.7066291 2.4160535 2647.5 511.5
2.4215794 0.70738143 2.4177101 2634.3335 509
2.4707575 0.70417774 2.4166892 2608.25 506.5
2.521183 0.70304364 2.4302671 2624 504.66669
2.5604527 0.7004723 2.4351981 2637 503
0.67137933 0.79737628 2.4175792 846 631
0.83368558 0.79832906 2.4177992 2864.3335 617
0.88979912 0.79572314 2.4241898 2844.8 612.40002
0.92953694 0.79380095 2.4278131 2833.6667 609.16669
0.97257233 0.79455006 2.4230447 2829 605.5
1.0244886 0.78840429 2.4299533 2824 601.40002
1.0743068 0.78701484 2.4171495 2903.6001 597
1.12744 0.78170246 2.4216821 2877.8572 592.85718
1.1798795 0.77954942 2.4304593 2833.8 589
1.2299291 0.77846622 2.4262097 2855.3335 585
1.2744793 0.77430779 2.4293268 2824.2222 581.66669
1.3319936 0.77233732 2.4242327 2815.1667 577.16669
1.3667943 0.76804054 2.4228716 2819.8335 574.5
1.4274893 0.76408309 2.42188 2808.6667 570
1.4757158 0.76212287 2.4306901 2780.1431 566.85718
1.5230947 0.76108432 2.4302692 2803.5 563.5
1.5792502 0.75374365 2.4266183 2780.4001 559.40002
1.6161525 0.75336474 2.41676 2796.5 556.5
0.58308375 0.81718701 2.4237885 2360.6667 639
0.62407315 0.81398427 2.4315383 2180 635.5
0.67413282 0.8087821 2.419884 2056.375 630.875
0.72434652 0.81032193 2.4189491 2785.5 626.5
0.77808022 0.80828524 2.4181442 2857.3335 621.83337
0.80803174 0.80379647 2.4225657 2878 619.33337
0.87103379 0.80041707 2.4235296 2826 614
14.36174 -10.443499 2.4603307 280 174
14.40515 -10.368967 2.4953656 455 175
11.365083 -10.281649 2.4901879 106 149
14.397587 -10.269603 2.4711671 508 176
14.420072 -10.192334 2.452199 533 177
9.2365818 -10.103384 2.4579904 257 127
14.432419 -10.096071 2.4827962 536 178
7.335587 -10.002415 2.4971302 915 102
7.5446143 -10.01078 2.498106 995 105
7.6189308 -10.018525 2.4996421 960 106
7.8305454 -10.022787 2.4995811 960 109
7.8989835 -10.020292 2.4985957 955 110
7.9062152 -10.041831 2.4500306 912 110
8.1001225 -10.004328 2.4935474 248 113
7.2534938 -9.9810228 2.4922328 844 101
7.3925753 -9.9884319 2.4933414 1037 103
7.453064 -9.9788961 2.490643 1005 104
7.7413855 -9.9975901 2.4937725 940 108
14.42398 -9.9979715 2.4583831 478 179
6.0211458 -9.9203758 2.4836566 189 82
6.0817971 -9.9221411 2.4837744 825 83
6.1257968 -9.8959875 2.4770203 277 84
14.410858 -9.8847427 2.4851918 487 180
14.444505 -9.8169689 2.4677384 524 181
3.8932724 -9.7934875 2.4633205 950 44
3.9308403 -9.7611017 2.4550467 1340 45
14.436827 -9.709178 2.4922965 482 182
1.7865889 -9.647151 2.4917562 1348 0
14.444182 -9.6243668 2.4701848 516 183
14.441977 -9.5217705 2.4935386 558 184
14.455768 -9.4422503 2.4723508 519 185
14.454183 -9.3416986 2.492743 516 186
14.47453 -9.2673054 2.4725053 606 187
14.493645 -9.1802893 2.4981275 558 188
14.495618 -9.0949068 2.4745553 572 189
14.496255 -9.0091581 2.4508889 605 190
14.505486 -9.0034389 2.4953506 591 190
14.481241 -8.9028187 2.4671969 597 191
14.497711 -8.8160992 2.4894276 619 192
14.512931 -8.7408352 2.4677906 624 193
14.514164 -8.6458206 2.4857633 554 194
14.50981 -8.55968 2.4606643 574 195
14.51604 -8.4688206 2.4779232 595 196
14.525242 -8.3857307 2.4753911 642 197
14.522868 -8.2964306 2.4706113 644 198
14.561287 -8.236701 2.452358 326 199
14.601622 -7.2064157 2.4901507 448 211
14.58186 -7.1147985 2.4778111 680 212
14.615841 -7.0499711 2.4742732 704 213
14.627711 -6.9690504 2.4826164 737 214
14.621346 -6.8853197 2.4714293 688 215
14.63692 -6.8064237 2.4804673 489 216
14.638112 -6.3942585 2.4704146 443.5 221
14.65736 -6.3190937 2.4759903 734 222
14.684466 -6.2534289 2.4669325 842 223
14.681741 -6.2403913 2.4970927 734 223
14.675323 -6.1605873 2.4820557 776 224
14.688559 -6.0837107 2.4845309 803 225
14.681348 -6.0045819 2.4683833 718 226
14.682421 -5.9179125 2.4812443 682.5 227
14.67302 -5.8388758 2.46384 381 228
14.700545 -5.838419 2.4961121 418 228
14.695033 -5.5127301 2.4880896 421 232
14.727383 -5.5370421 2.4658508 543 232
14.736915 -5.4607677 2.4640024 627 233
14.721174 -5.4435453 2.4870255 631 233
14.739153 -5.37675 2.4722891 675 234
14.745675 -5.3060236 2.4553883 671 235
14.747534 -5.2952271 2.4809394 664 235
14.743011 -5.2153497 2.4736674 531 236
14.759133 -4.650331 2.480943 413 243
14.808092 -4.677228 2.467098 458 243
14.789096 -4.5845308 2.4741535 690 244
14.791097 -4.5102801 2.4623024 566 245
14.772209 -4.4923801 2.4817879 585 245
14.793861 -4.4185114 2.4832735 291.5 246
14.806629 -4.4403543 2.4522989 269 246
14.821862 -4.3471303 2.4842293 158 247
14.782722 -4.2566805 2.4727216 470.5 248
14.820079 -4.2003145 2.4530425 796 249
14.794429 -4.1806121 2.4704669 701 249
14.801078 -4.1702871 2.4926264 747 249
14.812487 -4.1071615 2.4674058 486.5 250
14.829611 -4.094491 2.4997694 467 250
14.840547 -3.5346487 2.4691401 267 257
14.864555 -3.529022 2.4896894 550 257
14.864836 -3.4665437 2.4576323 704.5 258
14.840797 -3.4308367 2.4966369 881 258
14.863874 -3.4481742 2.4835212 854 258
14.848423 -3.3656993 2.4721131 779 259
14.859977 -3.3681359 2.474206 744.5 259
14.867581 -3.1900477 2.4858172 403 261
14.885406 -3.1222887 2.4685574 270.5 262
14.865709 -3.0178022 2.4814942 193 263
9.6329908 -1.4090871 2.4917483 434 256
9.6816521 -1.4066498 2.4573252 301 257
11.132002 -1.4048005 2.4678605 540 265
9.6320333 -1.3812251 2.4684365 373.5 256.75
11.144121 -1.3890952 2.4804807 593.5 265
8.2412853 -1.3050673 2.4817657 223 247
8.3357401 -1.3018667 2.4744363 324 248
8.4388294 -1.311837 2.4622762 279 249
8.5477304 -1.3100617 2.4576266 266 250
8.5658054 -1.3244398 2.4564037 217 250
11.190642 -1.3423548 2.4614589 594 266
11.247905 -1.3375213 2.4804094 534 266
11.385194 -1.3298326 2.4640183 575 267
11.500811 -1.3309702 2.4955385 677 267
11.576999 -1.3156675 2.4647446 778 268
8.1620522 -1.2985499 2.4993148 331 246
8.2715969 -1.2980841 2.4971409 361 247
11.644109 -1.2999476 2.4914832 984 268
11.753386 -1.2531414 2.4850149 880 269
11.622436 -1.2156576 2.4696512 1034.5 269
11.639474 -1.1931154 2.4853804 1007 269
11.652131 -1.1822681 2.4939854 921 269
11.746663 -1.1465685 2.4763792 813 270
11.761282 -1.1303561 2.4877038 862 270
11.613144 -1.0984855 2.4649196 1006 270
11.65968 -1.0732547 2.4879394 1011.5 270
11.770899 -1.0342568 2.4744985 863 271
11.626517 -0.99346018 2.4563951 975 271
11.659035 -0.96644986 2.4752893 1044.3334 271
11.667816 -0.93058085 2.4914532 995.33337 271
11.630885 -0.86448425 2.4509275 975 272
11.650415 -0.85457897 2.4590611 983 272
11.669701 -0.82608533 2.473479 972.75 272
11.779682 -0.8007918 2.4514141 690 273
11.678734 -0.78009093 2.4907985 932 272
11.703634 -0.78204679 2.4960039 918 272
11.796299 -0.75562012 2.4698317 738 273
11.661413 -0.71163273 2.4527934 989 273
11.707353 -0.70200181 2.4659789 976 273
11.68145 -0.68272251 2.4656951 985 273
11.706863 -0.66044199 2.4776001 932.5 273
11.691713 -0.61847925 2.4852743 907.5 273
11.710773 -0.63115883 2.4862616 932.5 273
11.695623 -0.5781545 2.4960334 901.5 273
11.705398 -0.57291859 2.4995058 848 273
11.794484 -0.57816517 2.4632776 792 274
11.68817 -0.51464689 2.4546571 904 274
11.713282 -0.54006404 2.4545212 883 274
11.7101 -0.47342014 2.4678597 951.5 274
11.724777 -0.42673621 2.4797242 840 274
11.726587 -0.37436268 2.4887455 816.20001 274
11.726977 -0.33379585 2.4947848 746 274
11.722896 -0.25101861 2.4507034 803 275
11.726078 -0.22160648 2.4542339 720.75 275
11.73024 -0.17569347 2.4588809 848.5 275
11.754721 -0.17592958 2.4639969 807.5 275
11.733608 -0.1210303 2.4714479 907 306.33334
11.754231 -0.1252774 2.4670732 908 275
11.728816 -0.077647232 2.4807484 834.16669 337.66669
11.765003 -0.063962765 2.4716825 906.5 275
11.69727 -0.048831668 2.4834158 839 369
11.731189 -0.020053325 2.4799707 752.28577 328.71429
11.761086 -0.028033214 2.4715869 844 275
11.727942 0.031803578 2.4900966 705 369
11.757133 0.021555198 2.4758956 697.79999 293.80002
11.739041 0.073555931 2.4812958 689.20001 331.39999
11.76471 0.077323899 2.4775941 689 298.5
11.225293 0.13808013 2.4826288 568 371
11.580791 0.12687805 2.4561889 610 369
11.722719 0.11007966 2.486728 606.5 369
11.76378 0.12792102 2.468879 656.5 275
10.673819 0.19255868 2.4794421 775.5 373.5
10.807817 0.18248241 2.4865196 787 373
10.932526 0.17092605 2.4660828 718 372
10.966379 0.17784463 2.4860001 649 321.5
11.05621 0.18606865 2.46843 631 272
11.222542 0.17644359 2.4550514 554 273
11.598812 0.15895344 2.4852536 508 274
11.693518 0.15529568 2.4527311 606 275
11.73073 0.16246127 2.4599745 573 275
11.776754 0.15208061 2.4701991 586 275
9.6978807 0.24755849 2.4938688 727 379
10.021833 0.23622449 2.4857233 823 377
10.253037 0.22668871 2.4966619 822 376
10.345037 0.23831837 2.4950254 839 268
10.369304 0.2331157 2.47451 819.125 281.875
10.427821 0.2303918 2.467927 806.5 269
10.4507 0.23382801 2.4729912 783 269
10.515266 0.21589392 2.4773793 840.5 321.5
10.649271 0.22605079 2.4718337 752 270
10.656093 0.21525082 2.4743958 701 270
10.862653 0.20935974 2.473053 699 271
10.963136 0.20547055 2.4961057 700 271
8.8686924 0.29201856 2.4819267 1021 384
8.9747343 0.29142427 2.4698331 990 383
9.1532602 0.28087318 2.477664 945 382
9.2991371 0.26912388 2.475307 864 381
9.465477 0.25770408 2.4769378 866 380
7.9858665 0.34660849 2.4713924 1353 390.5
8.1297979 0.33823305 2.4981921 1311 390
8.182579 0.33597097 2.4760182 1333 389
8.3359604 0.32639813 2.4846385 1253 388
8.4876347 0.31585172 2.4914691 1272 387
8.5165081 0.31273749 2.4603066 1086 386
8.6145258 0.30389786 2.4898858 1190 386
8.680932 0.3021242 2.4686317 1162 385
7.0502458 0.39812648 2.4592814 1357 399
7.1759415 0.39084709 2.4875607 1393.5 398.5
7.2387447 0.38700992 2.4574978 1332 397
7.4408808 0.37891337 2.4744234 1347 395.5
7.6606593 0.37133387 2.4943223 1337 394
7.8134227 0.35775569 2.4717751 1339 392
6.1446991 0.44616333 2.4958382 1721 411
6.1804671 0.44373932 2.479809 1710 410
6.2236362 0.44178817 2.4664459 1737 409
6.2705226 0.44003916 2.4542048 1678 408
6.4327011 0.43141755 2.4723887 1654.5 406.5
6.5860157 0.42235914 2.4849961 1546 405
6.6266532 0.41999143 2.468122 1570 404
6.6653891 0.41746256 2.4502585 1559 403
6.7647972 0.41240999 2.4884658 1539 403
6.8177485 0.41068327 2.4749517 1547 402
6.8763523 0.40922245 2.4630339 1485 401
7.054647 0.40320498 2.4945295 1440 400
5.479857 0.49945965 2.4626257 1861 420
5.6315079 0.48752236 2.4618866 1892.5 417.5
5.7785158 0.48024672 2.48476 1830 416
5.8713198 0.46843377 2.4827008 1841.5 414.5
5.9311328 0.46543589 2.4636197 1796 413
5.9965801 0.45789284 2.4930837 1870 413
6.045186 0.45648548 2.4832056 1760 412
6.0910416 0.45481268 2.4718344 1722 411
4.7748976 0.54553819 2.4591944 2041 433
4.8166156 0.54489106 2.4550598 1987 432
4.9835181 0.53802514 2.4769912 2028 429.5
5.1335073 0.52836555 2.4869509 2051 427
5.1505833 0.52476311 2.4684343 2043 426
5.2805643 0.51163113 2.4651685 2010.5 423.5
5.432878 0.50569195 2.4969642 1912 422
5.4573002 0.50267297 2.4802842 1880 421
4.1580515 0.59302968 2.4744954 2254 448
4.2715778 0.58649683 2.4966228 2278 446
4.3202505 0.58225513 2.4765606 2246.3335 444
4.4341149 0.57501101 2.4953973 2141 442
4.4686422 0.57133466 2.4778032 2129 440.5
4.5259523 0.567738 2.4600241 2150.5 438.5
4.6465621 0.55780441 2.4653201 2142 436
4.7755914 0.55096638 2.4850733 2049 434
3.3585775 0.64730299 2.4606586 2492.5 471.5
3.4231963 0.63895941 2.4786391 2463.6667 470
3.472481 0.63714635 2.470319 2391 468
3.5250654 0.63849008 2.4745874 2391.5 466.5
3.5786085 0.63574469 2.4799933 2449 465
3.6857784 0.62424892 2.4660988 2438.6667 461
3.7916 0.61956865 2.4943857 2433 459
3.8240638 0.61937755 2.4928665 2302 458
3.856631 0.61365473 2.4682024 2307 456
3.9670479 0.60614598 2.4835978 2358 453.5
4.0258484 0.60412246 2.473628 2323 451.5
4.0661893 0.60192841 2.4633474 2250 450
2.52458 0.69648284 2.4660223 2471.6667 506
2.5727186 0.69210696 2.4732521 2354.25 504
2.6144772 0.69189775 2.4716783 2417.5 502
2.6733966 0.68991983 2.4874187 2538.6667 500
2.7167404 0.68681043 2.4750929 2451 497.5
2.7714994 0.68639177 2.4724696 2495 495
2.8307431 0.6822772 2.4683921 2503.25 492.25
2.8885245 0.67707181 2.4846511 2424 490.5
2.9323988 0.67324495 2.4693613 2456 488
2.9824424 0.67066014 2.4586244 2462 485.5
3.0267887 0.66710442 2.4742191 2430.4001 484.39999
3.0652096 0.6600799 2.4665341 2445 482.5
3.128644 0.65818298 2.470397 2440.25 480.25
3.1735973 0.65567827 2.4806647 2427 479
3.2150073 0.65192258 2.481782 2395.5 477.5
3.2720294 0.6523999 2.482465 2504 475.5
3.3170588 0.65026999 2.4731674 2478 473.5
1.5096939 0.74960279 2.48979 2448 566.5
1.5748131 0.74961656 2.4886608 2423 562
1.6186737 0.74945635 2.4873312 2727 559
1.6938329 0.74947137 2.4860249 2686 554
1.7137818 0.74463022 2.4694088 2646.6667 552
1.769953 0.74558359 2.4715958 2668.5 548.5
1.8168133 0.74208915 2.4590166 2723.3335 545
1.8846648 0.73816437 2.4892278 2676 542
1.9232063 0.73390263 2.4739428 2641.6667 539
1.9743713 0.72836566 2.4765325 2546.1667 536
2.0272207 0.72018433 2.4807656 2001.5 533
2.0794821 0.72544187 2.4757705 2509.25 529.875
2.1270492 0.72448659 2.4828181 2547 527.5
2.1785064 0.72363371 2.4788852 2571.75 524.5
2.2261634 0.7166838 2.4650979 2553.75 521.25
2.2714548 0.71607709 2.4779537 2500.2 519.40002
2.3287737 0.71507263 2.4914398 2543.3335 517
2.3687327 0.70803547 2.476917 2431.25 514.25
2.4253795 0.707623 2.4810905 2491.4001 511.60001
2.4703498 0.70434368 2.4805231 2490 509.33334
2.506541 0.70308191 2.4902389 2492 508
0.83349764 0.79764301 2.4696505 2787.8 618.20001
0.86952931 0.79690045 2.4733942 2845.2859 615.28577
0.92337608 0.79404181 2.4803028 2816 611
0.9755314 0.79466408 2.4735558 2827.2 606.60004
1.0157685 0.79133356 2.4799716 2782.25 603.5
1.0800928 0.7885105 2.4667573 2866.1667 598
1.1262506 0.78545398 2.488692 2802.8 595
1.1800439 0.77917522 2.4757774 2763.2 590.40002
1.2246864 0.77554047 2.472533 2710.8572 586.85718
1.2713697 0.77066427 2.4788904 2711.5 583.5
1.3281857 0.77245891 2.4780798 2717 579.28577
1.3785858 0.76481038 2.474304 2697.2 575.40002
1.419974 0.76197797 2.4712601 2710.8572 572.28577
1.4817891 0.75613749 2.4756222 2640.5 568
1.5302799 0.75250256 2.4663892 2582.5 564.25
1.5734575 0.75369453 2.4804921 2627 561.83337
1.6267413 0.75214267 2.4743738 2669.75 558
1.669278 0.75215799 2.4954891 2667.5 556
0.61048836 0.81752551 2.4798222 504.5 637.5
0.67515957 0.81072462 2.458086 772 631.5
0.72306406 0.81263369 2.4630985 1574 627.5
0.77702373 0.81469578 2.4762456 2774.4001 623.20001
0.80654967 0.80264914 2.4699154 2864.5 620.5
14.353746 -10.425896 2.5095253 290 174
14.390717 -10.346042 2.5453384 458 175
14.395978 -10.256101 2.5228868 518 176
14.402316 -10.167458 2.5007534 528 177
9.1931581 -10.131785 2.5195203 229 126
9.2418623 -10.096942 2.5105748 211 127
14.398415 -10.059306 2.529752 550 178
7.2131405 -10.017509 2.5015438 427 100
7.6964178 -10.029743 2.5020278 963 107
7.9778485 -10.03054 2.5007317 825 111
8.051466 -10.033381 2.501049 641 112
8.1087055 -10.002166 2.54863 180 113
6.0486956 -9.953702 2.5472302 302 82
7.3350129 -9.9887123 2.5493147 949 102
7.4710922 -9.9904823 2.5490422 1099 104
14.428041 -9.9880972 2.5114443 459 179
6.0812922 -9.9084654 2.535527 807 83
6.125289 -9.88235 2.5286365 192 84
14.435301 -9.8892765 2.5391757 487 180
14.439603 -9.8013735 2.5162759 564 181
3.8936234 -9.7816658 2.5148392 1070 44
3.9375904 -9.7656345 2.5105193 1260 45
14.430269 -9.6926374 2.5389702 569 182
1.7865889 -9.6347885 2.5402846 1304 0
14.431027 -9.6035547 2.5153127 562 183
14.458469 -9.5211315 2.5412703 567 184
14.457422 -9.4318609 2.5171216 581 185
14.458331 -9.332099 2.5402091 557 186
14.46621 -9.2497501 2.5174422 587 187
14.474452 -9.1563425 2.5384963 582 188
14.464655 -9.0637617 2.5125251 611 189
14.484506 -8.97826 2.5359416 569 190
14.503121 -8.9044085 2.5146906 579 191
14.502774 -8.8073378 2.5329299 608 192
14.512931 -8.729084 2.5100532 596 193
14.518408 -8.6366854 2.5277379 595 194
14.542143 -8.5673065 2.5070167 563 195
14.52938 -8.5477247 2.5465016 571 195
14.533956 -8.467454 2.5222244 614 196
14.520966 -8.3653994 2.5358727 607 197
14.552888 -8.3018293 2.516155 519 198
14.590998 -7.1890302 2.5239656 456 211
14.638214 -7.1247654 2.538887 698 212
14.583819 -7.0228858 2.5023313 733 213
14.608725 -7.0228486 2.541116 674 213
14.625037 -6.9557767 2.5163903 669 214
14.61509 -6.8643599 2.5212252 681 215
14.639606 -6.7901158 2.5298197 623 216
14.674579 -6.7205906 2.540261 332 217
14.640827 -6.3718071 2.5326829 271 221
14.667789 -6.305841 2.5237811 662 222
14.664476 -6.2210951 2.524467 707 223
14.659847 -6.1365209 2.523632 764 224
14.677613 -6.0618215 2.5257776 817 225
14.703282 -6.0021648 2.500376 708 226
14.696885 -5.9879322 2.527648 779 226
14.703025 -5.9089131 2.5267348 731 227
14.730822 -5.838347 2.5301728 570 228
14.707047 -5.5057755 2.5160234 394 232
14.735064 -5.4304957 2.5297604 617 233
14.748892 -5.3626108 2.5130517 675 234
14.731269 -5.344255 2.5359468 678 234
14.731273 -5.2717915 2.5162411 641 235
14.760695 -5.2101588 2.5012665 464 236
14.789262 -4.6417489 2.5204301 376.5 243
14.763949 -4.5524139 2.51563 690 244
14.781865 -4.5456991 2.5412652 666 244
14.790153 -4.4796162 2.5182924 571.5 245
14.807575 -4.4047599 2.5178869 358 246
14.825547 -4.3983903 2.5418415 321 246
14.810494 -4.3072619 2.5466959 156 247
14.80549 -4.2384882 2.5196996 458.5 248
14.804878 -4.1596885 2.513165 711 249
14.803928 -4.147573 2.5329835 721 249
14.794411 -4.0614018 2.5326157 445 250
14.819146 -4.0797811 2.5177281 475 250
14.820868 -3.643503 2.546999 149 255
14.838053 -3.5788565 2.5266399 481 256
14.863947 -3.5855603 2.5304704 536 256
14.838627 -3.5106461 2.5030079 798 257
14.853992 -3.5019617 2.5232038 885 257
14.859754 -3.4911458 2.5413985 859 257
14.854259 -3.4166894 2.5229955 800.5 258
14.858105 -3.3998451 2.5480762 832 258
14.834945 -3.3394427 2.5019257 667 259
14.868641 -3.329493 2.5313694 542 259
14.879162 -3.1805379 2.5034378 293 261
14.877676 -3.0609834 2.5427308 406.5 262
14.890375 -3.0051429 2.5074599 436 263
14.875865 -2.9774723 2.5351012 396 263
14.907786 -2.9963162 2.5254493 404 263
10.473865 -1.4146113 2.5492029 245 260
11.173969 -1.4473318 2.5148046 402 264
11.232557 -1.4363723 2.5386791 559 264
11.198896 -1.3786962 2.5023479 585 265
11.227011 -1.3706284 2.5150309 604 265
11.255126 -1.362136 2.5278776 605 265
11.314263 -1.3566768 2.5479312 575 265
8.078145 -1.3027281 2.5085444 351 245
8.4353485 -1.3055896 2.5101271 382 248
8.5387506 -1.3097502 2.5469439 299 248
8.5879822 -1.3107338 2.5185666 350 249
8.6592331 -1.3097639 2.5455813 338 249
8.7294407 -1.307687 2.5257163 214 250
11.373103 -1.3399458 2.51454 563 266
11.450746 -1.3370874 2.5380232 635 266
11.580481 -1.328274 2.519094 806 267
11.636832 -1.3229066 2.5375605 871 267
11.665008 -1.3142636 2.5499213 952 267
11.736506 -1.3219244 2.5047419 790 268
8.1639442 -1.2871855 2.5060642 604 246
8.3142242 -1.2930684 2.5161157 379 247
8.3890572 -1.2929058 2.5447767 455 247
11.66186 -1.2725234 2.5106828 1059.5 268
11.676855 -1.2316946 2.5354781 1011.3334 268
11.767989 -1.2310711 2.5001285 945 269
11.668196 -1.1662208 2.5058789 933.5 269
11.704705 -1.1519603 2.5220885 955 269
11.68572 -1.1200248 2.5318496 946.75 269
11.693996 -1.0904268 2.5472114 927 269
11.662604 -1.0269126 2.5086317 1034 270
11.679741 -0.98232591 2.5310791 994.66669 270
11.714501 -0.97671098 2.5419471 972 270
11.681148 -0.90750855 2.5033853 1041 271
11.687244 -0.87915587 2.5151482 1000.25 271
11.726024 -0.85155809 2.5341349 964 271
11.725048 -0.82769823 2.5419669 918.33337 271
11.697289 -0.75189108 2.5040221 927 272
11.690453 -0.72689193 2.5100002 902 272
11.721049 -0.72040975 2.5188971 914 272
11.718772 -0.67342675 2.5316687 911.75 272
11.725924 -0.56815529 2.5051074 917.5 273
11.736675 -0.5199818 2.5182011 878.5 273
11.716149 -0.48833862 2.5202029 922 273
11.755735 -0.4716416 2.5321589 893.5 273
11.802164 -0.45487764 2.545506 853 273
11.76893 -0.43600005 2.541589 903.5 273
11.747523 -0.30451459 2.5030067 820 274
11.756328 -0.31689188 2.50331 783 274
11.74312 -0.27980044 2.5049915 782.5 274
11.757795 -0.26769203 2.5094705 777.5 274
11.743609 -0.23128434 2.5101924 758 274
11.760894 -0.22333413 2.5145545 769.66669 274
11.768558 -0.17832917 2.5198717 802.25 274
11.726685 -0.12469638 2.5398488 914 370
11.77949 -0.12303811 2.5357711 818.40002 312.39999
11.806224 -0.11426038 2.5316567 821 274
11.746243 -0.076007023 2.5459812 812.66669 370
11.761889 -0.051967386 2.5499632 782 370
11.822122 -0.070115037 2.5366597 822.5 274
11.757978 -0.033719938 2.5494342 707 370
11.814051 -0.01502094 2.5359192 675 274
11.850249 -0.039458442 2.5433273 684 274
11.75211 0.0072309976 2.5484052 790 370
11.814051 0.0093390569 2.5359662 574 274
11.856447 0.033368833 2.5447092 645.33337 274
11.755531 0.061605472 2.5483761 701.5 370
11.868839 0.074401066 2.5464244 721 274
11.614223 0.12829165 2.5155985 561 370
11.725706 0.11695588 2.5400167 585 370
11.757644 0.12734267 2.5334349 583.5 322
11.815029 0.1272842 2.5328984 610 274
11.871773 0.10385522 2.5460248 670 274
10.653838 0.19584431 2.5475683 660 375
10.817558 0.18485153 2.5378611 767 374
10.920928 0.17276652 2.5130205 725 373
11.062968 0.17496929 2.533098 588 322
11.134834 0.19758496 2.5355546 627 271
11.15409 0.150473 2.5169194 617 372
11.214403 0.17777845 2.5040565 583.5 272
11.453218 0.16173217 2.5060456 512 273
11.688822 0.16706763 2.5037913 506 274
11.794484 0.15739851 2.5268288 510 274
9.656148 0.24983811 2.5275557 873 380
9.835474 0.23831992 2.5300608 843 379
9.933507 0.23740707 2.5094843 866 378
10.056701 0.22854488 2.5413184 800 378
10.192743 0.22843452 2.528672 923 377
10.285246 0.23423776 2.5357752 811.33337 303.66669
10.317189 0.23906139 2.5306549 816.60004 288.80002
10.369894 0.23923939 2.548475 769 267
10.420135 0.2251405 2.5219431 817 304
10.487604 0.2206133 2.5225744 767.33337 303.66669
10.58019 0.21927294 2.5048349 749 269
10.773503 0.22134279 2.5254908 730 269.5
10.838343 0.20929286 2.5169578 771 270
10.954319 0.21096273 2.5435655 735 270
8.7404118 0.29565379 2.5274112 924 386
8.7963915 0.29360056 2.5026231 1021 385
9.0632877 0.28573829 2.5372376 899 384
9.1280899 0.28390524 2.5130053 928 383
9.2409363 0.27471682 2.5451396 937 383
9.2536869 0.27147368 2.5059323 983 382
9.3869448 0.2625331 2.5429733 882 382
9.4238501 0.26006767 2.5094671 855 381
8.0884352 0.34091228 2.5234957 1352 391
8.2101021 0.33008286 2.5241776 1278 390
8.2735186 0.32828614 2.5048013 1317 389
8.3826447 0.32029763 2.5391111 1116 389
8.4289351 0.31787133 2.5136554 1186 388
8.531496 0.30901113 2.5455256 1145 388
8.5749722 0.30653587 2.5184205 1133 387
7.109673 0.39913613 2.5498955 1334 401
7.1507597 0.39662272 2.530206 1395 400
7.2625847 0.38629684 2.5365517 1335 399
7.3065314 0.38389626 2.516897 1425 398
7.3731589 0.38259298 2.504564 1358 397
7.500947 0.37761176 2.5493782 1402 397
7.5564151 0.37567902 2.5321751 1406 396
7.6251621 0.3743214 2.5188923 1435 395
7.7096548 0.36673409 2.5483038 1368 395
7.7868233 0.36341482 2.5183914 1324 393.5
7.9340982 0.35556811 2.5486808 1410 393
7.9564304 0.35206178 2.5183439 1394 392
6.1107526 0.4486773 2.5123615 1796 412
6.1817884 0.43893445 2.5283399 1726.5 411.5
6.2416344 0.4357917 2.5064371 1756 410
6.3337531 0.43371379 2.5286841 1686 409.5
6.3859735 0.43232927 2.5180488 1745 408.5
6.4462957 0.42803743 2.5269048 1727 408
6.4962859 0.42641771 2.5146048 1605 407
6.5416207 0.42444399 2.5001481 1552 406
6.590271 0.41863698 2.5366218 1573.5 406.5
6.664535 0.41602224 2.5163665 1601 405
6.7137284 0.41418847 2.5022624 1600 404
6.8148479 0.4087131 2.5416348 1543 404
6.8660812 0.40693706 2.5273929 1425 403
6.9483142 0.40686944 2.523937 1428 402
6.9911308 0.40448475 2.5057571 1462 401
5.6194768 0.49691942 2.5134561 1805.5 419.5
5.7083168 0.48991892 2.5410321 1784 419
5.7644882 0.48685974 2.5222375 1816.5 417.5
5.8285027 0.47521693 2.5230865 1807.5 416.5
5.9283953 0.46523002 2.5388288 1811.5 415.5
5.9719214 0.46104833 2.5126123 1778 414
6.0896797 0.45208922 2.5339851 1716 413
4.927681 0.54805636 2.5274739 1924.5 432.5
4.9881091 0.54658651 2.5187335 1944 431
5.0961175 0.54054624 2.5490232 2023 430
5.1198206 0.53497374 2.520452 2000 428.5
5.231214 0.52530807 2.5370238 2011 427
5.2679076 0.52097058 2.5136664 1998.5 425.5
5.3783751 0.51373726 2.541122 1956 424.5
5.4138336 0.50918299 2.5159972 1897 423
5.4716892 0.50200427 2.5453951 1898 423
5.5134993 0.50058985 2.5364909 1849 422
5.5771155 0.50104582 2.5371602 1827 421
4.2235522 0.59339774 2.5285282 2273 448.5
4.2512069 0.58911073 2.508759 2266 447
4.319994 0.58419299 2.5400112 2243.5 446.5
4.3665709 0.57965505 2.5181983 2205.5 444.5
4.4128733 0.57460719 2.5216584 2144.5 443.5
4.4747877 0.56883144 2.5209632 2157.3335 442
4.5446386 0.56385803 2.5240583 2162 440.5
4.5920591 0.56736773 2.5112555 2112 439
4.6088738 0.56336236 2.5483978 2139 440
4.6679339 0.56848377 2.5145955 2144 437.5
4.7035141 0.56403798 2.5492442 2113 438
4.7785406 0.5593859 2.5251665 2126 435.5
4.8806019 0.55087519 2.5424666 1965 434
3.3249516 0.64761645 2.5154471 2459 475
3.3906648 0.64514863 2.5220723 2510 473
3.4220877 0.64006013 2.5366323 2476.5 472.5
3.4729402 0.63585091 2.5182757 2447.3335 470
3.5213211 0.63067484 2.5213621 2469.75 468.5
3.5700395 0.62816918 2.5352781 2447.5 467.5
3.618865 0.63162994 2.52319 2434 465.5
3.6740818 0.63299394 2.5275707 2428.5 464
3.7294624 0.62568557 2.5213542 2435.3335 462
3.7799888 0.62021589 2.5225487 2418.5 460.5
3.8184876 0.61814421 2.5381892 2414 460
3.8760862 0.61921966 2.5414798 2351 458.5
3.9322038 0.61440945 2.5196714 2289 456
4.0197182 0.60806561 2.5432777 2247 454.5
4.0776496 0.60584038 2.5322347 2305.5 452.5
4.1327076 0.60300493 2.5185957 2276.5 450.5
2.276428 0.69545794 2.515671 457 520.5
2.3215203 0.69763637 2.5228205 709 518.5
2.4286242 0.69748068 2.5201368 1567 513
2.4716911 0.69513643 2.5231481 1449.5 511
2.5226011 0.68978602 2.5182471 1192.8572 508.28574
2.5611382 0.68815875 2.507843 1585 506
2.6306179 0.68631703 2.5246387 1433.75 503.5
2.7230442 0.69037426 2.5380597 2566.3335 500
2.7804835 0.6845783 2.5278525 2481.25 497
2.8258913 0.6814611 2.5194225 2452 494.66669
2.8752151 0.67730594 2.5238476 2416 492.75
2.9170408 0.67139399 2.5130568 2391 490.5
2.9778461 0.67100209 2.5272908 2446 488.66669
