# .PCD v0.7 - Point Cloud Data file format
VERSION 0.7
FIELDS x y z intensities index
SIZE 4 4 4 4 4
TYPE F F F F F
COUNT 1 1 1 1 1
WIDTH 1034
HEIGHT 1
VIEWPOINT 0 0 0 1 0 0 0
POINTS 1034
DATA ascii
1.1244923 -1.8747227 -1.1680417 2823.4001 59.100002
1.1735891 -1.8734025 -1.1635069 2663 63.375
1.2245543 -1.8758016 -1.1567024 2548.9167 67.666672
1.2729995 -1.8728917 -1.1550319 2576.0835 71.75
1.3128772 -1.8724192 -1.1536055 2577 75
1.3758994 -1.8718357 -1.1527627 2544 80
0.49001315 -1.8249792 -1.1672801 3063.25 0.875
0.52667093 -1.8232826 -1.1672873 3110.4001 4.5999999
0.57270664 -1.8247114 -1.1652578 3064.1431 9.2142859
0.62394398 -1.8233 -1.1654905 3066.6001 14.333334
0.67619389 -1.8218942 -1.163273 3076.2002 19.533335
0.72537625 -1.8237801 -1.1629379 3053.5002 24.285715
0.77499664 -1.8238137 -1.1667786 3017.3848 29.000002
0.82599688 -1.8234971 -1.1668748 3041.5386 33.846153
0.87782502 -1.8285441 -1.1662709 2979.8572 38.57143
0.92096615 -1.8200421 -1.164205 2963.5835 42.833336
0.97729325 -1.8249161 -1.1661762 2921.4287 47.785717
1.0279974 -1.8218539 -1.167031 2932.3 52.400002
1.0747417 -1.8243035 -1.1698632 2901 56.384617
1.1228104 -1.8273891 -1.169368 2840.1541 60.46154
1.1744685 -1.8234979 -1.1690307 2711.1541 65
1.2247976 -1.8223616 -1.1649505 2579.9001 69.349998
1.2807819 -1.824002 -1.1569406 2571.5 74.083336
1.3248899 -1.8245629 -1.1537457 2580.6001 77.700005
1.3763788 -1.8195 -1.1526071 2533.5 82
1.4075116 -1.8315221 -1.1514606 2529 84
1.5298767 -1.8121562 -1.1518809 2484 94
0.48406532 -1.7731988 -1.1692219 3110.6667 1
0.5254429 -1.7767378 -1.1711218 3118.7058 5.1764708
0.57382184 -1.7736187 -1.1674567 3062.5334 10.200001
0.62499589 -1.7755526 -1.1696728 3056 15.307693
0.67461646 -1.7783706 -1.1691945 3107.8572 20.214287
0.72649509 -1.7749925 -1.1711619 3042.5 25.375
0.77747488 -1.7778746 -1.1716244 2999.5334 30.266668
0.82564944 -1.7725319 -1.1699619 3024.8572 35.07143
0.87487197 -1.7794043 -1.1714575 2974.3335 39.533337
0.92614919 -1.7715672 -1.167636 2941.3125 44.625
0.97700524 -1.7725608 -1.1681058 2940.1431 49.285717
1.0267432 -1.7733409 -1.1707987 2870.8572 53.714287
1.07542 -1.7735027 -1.1731496 2795.5457 58
1.1234536 -1.776485 -1.1710179 2851 62.166668
1.1727467 -1.7733454 -1.1719631 2734.5 66.5
1.2229298 -1.7713829 -1.1647031 2664.8 71
1.2722274 -1.776908 -1.1607012 2553.3848 75
1.3222638 -1.7714266 -1.1564697 2570.6001 79.400002
1.3730776 -1.7728655 -1.1531856 2564.6667 83.5
1.4269323 -1.7668421 -1.1517999 2548 88
1.4545764 -1.7953163 -1.1522726 2562 89
0.48415539 -1.7244183 -1.1726054 3089.3 1.7
0.52256209 -1.7260973 -1.17147 3108 5.7000003
0.57676661 -1.7265404 -1.1713161 2967.6924 11.307693
0.62372482 -1.7299516 -1.169323 2990.3638 16.09091
0.67139089 -1.7297777 -1.1703985 2911.5 20.916668
0.72390878 -1.7252159 -1.1714932 2873 26.272728
0.77528024 -1.7293888 -1.1734052 2880.2222 31.222223
0.82180494 -1.7285255 -1.1720003 2878.1819 35.818184
0.87786233 -1.7252983 -1.1707854 2886.3335 41.333336
0.923706 -1.7260554 -1.170535 2922.3335 45.666668
0.96950573 -1.7354259 -1.1707305 2889.1667 49.666668
1.0251607 -1.7340162 -1.1701007 2809.3335 54.833336
1.0723633 -1.721287 -1.1664065 2836.2 59.600002
1.1228583 -1.7314354 -1.1651784 2782.3333 63.777779
1.180161 -1.7264649 -1.1630316 2812.75 69
1.2283759 -1.7272514 -1.161239 2833.7144 73.14286
1.2743232 -1.7266947 -1.1580918 2695.7 77.099998
1.3211812 -1.725922 -1.1578673 2576 81
1.3743422 -1.725692 -1.1553746 2575.75 85.375
1.4215895 -1.7174889 -1.1533247 2572.75 89.5
1.4607691 -1.7197378 -1.1518822 2527.5 92.5
0.47471556 -1.6727744 -1.166296 2892.0911 1.5454546
0.52613664 -1.6813678 -1.1639571 2998.9167 6.916667
0.57792163 -1.6764029 -1.1618801 2933.2 12.5
0.62502944 -1.6837952 -1.1655054 2851.7778 17.222223
0.67085809 -1.678892 -1.1629939 2876.2 22.1
0.72187328 -1.6731367 -1.1605614 2904.3 27.5
0.77358454 -1.6739497 -1.1595514 3029.4546 32.727272
0.82568252 -1.6685656 -1.1566095 3190.625 38.125
0.87114084 -1.6684915 -1.1552954 3125.875 42.625
0.92844135 -1.6736689 -1.156139 3147.8889 48
0.9767502 -1.6761376 -1.1568133 3007.0002 52.500004
1.0230973 -1.6772884 -1.1556771 2989.2727 56.818184
1.0706725 -1.6753294 -1.158089 2981.2 61.200001
1.126117 -1.6783847 -1.1583225 2965.25 66.083336
1.1712213 -1.6735553 -1.1562117 3019.7 70.300003
1.2198888 -1.6709996 -1.1562492 3006.125 74.625
1.2722427 -1.6751382 -1.1568562 2863.9092 78.909096
1.3245716 -1.6766664 -1.1566989 2604.5715 83.214287
1.37468 -1.6714247 -1.156987 2579.6667 87.5
1.4183469 -1.6785296 -1.1537279 2574 90.800003
1.4653623 -1.6756518 -1.151391 2527.6667 94.666672
0.4702515 -1.6209172 -1.1599381 2954.3848 1.923077
0.52211577 -1.6283268 -1.1607736 2991.3333 7.4444447
0.57587576 -1.6251017 -1.1567434 3172.647 13.352942
0.62393564 -1.6286974 -1.1579658 2952.6924 18.384617
0.67129391 -1.6281567 -1.1571722 3060.2002 23.400002
0.7247349 -1.6219182 -1.1562834 3012.8669 29.133335
0.77947098 -1.6246161 -1.1560301 3145.9231 34.69231
0.82600224 -1.6236353 -1.1565251 3060.6667 39.416668
0.87470263 -1.6221995 -1.1557816 2937.0669 44.333336
0.92668247 -1.6294842 -1.1569271 2878.7273 49.18182
0.97813523 -1.6286796 -1.1542755 2860.8889 54.222221
1.0284001 -1.6252612 -1.1543709 2863 59.090912
1.0773412 -1.6264495 -1.1559489 2798.7778 63.555557
1.1223487 -1.6271489 -1.1563092 2773.75 67.625
1.1783618 -1.6302954 -1.1554142 2761.1819 72.545456
1.2289633 -1.6299562 -1.1547277 2806.8 77
1.2719657 -1.6233294 -1.1529639 2727 81
1.3256857 -1.6272081 -1.1579231 2722.1111 85.222221
1.3760393 -1.6204941 -1.1567271 2588.8335 89.666672
1.4220524 -1.6304169 -1.1556048 2579.625 93
1.4705997 -1.6277279 -1.1534525 2558.6001 97
0.44615102 -1.5728924 -1.1591634 2845.5 0
0.47500482 -1.5783616 -1.1582047 2930.5715 3.1428573
0.52479452 -1.5790677 -1.1581621 2889.8572 8.6428576
0.57259941 -1.5750613 -1.1563486 2996.1431 14.000001
0.61920112 -1.578084 -1.1561621 2858.231 19
0.6735822 -1.5760356 -1.1540192 2996.5386 24.923079
0.72361773 -1.578977 -1.1532409 2985.1667 30.166668
0.77683479 -1.5884683 -1.154696 3016.7144 35.428574
0.81632119 -1.5742283 -1.1539749 2965.7 39.900002
0.88130301 -1.5746028 -1.1530178 2949 46.5
0.92444777 -1.5864283 -1.1524063 2947.2859 50.428574
0.97463256 -1.5777476 -1.1528002 2958.7 55.600002
1.0191793 -1.5649998 -1.1542346 2888.4287 60.285717
1.0858775 -1.5591567 -1.1540979 2900.2 66.800003
1.1234097 -1.5721657 -1.1516335 2886.8572 69.857147
1.1749643 -1.5720315 -1.1530304 2773 74.5
1.2302624 -1.5823797 -1.1530545 2799.1667 79
1.2719846 -1.566862 -1.1538118 2850.6001 83.200005
1.3312166 -1.5681401 -1.1551569 2752.0002 88.14286
1.3767996 -1.5740721 -1.1565701 2610 91.636368
1.4201072 -1.5721346 -1.1553993 2587.3638 95.272728
1.4651607 -1.5826571 -1.1527517 2567.8335 98.5
1.522421 -1.5601721 -1.1502302 2600 104
0.44172201 -1.5277175 -1.1530474 3125.5 0.25
0.47519007 -1.5235586 -1.1557033 3060.0952 4.0952382
0.53008342 -1.5231642 -1.1541369 3147.5 10.333334
0.56868279 -1.5192297 -1.153196 3167.5 14.75
0.61507064 -1.5247138 -1.1548737 3052.5 19.75
0.67342794 -1.5171726 -1.1564893 3134.5715 26.285715
0.73182088 -1.5197529 -1.1537817 3269.2859 32.57143
0.77757823 -1.5134528 -1.1529722 3046.125 37.625
0.81933665 -1.5236411 -1.1549726 2933.8889 41.666668
0.87777752 -1.5245233 -1.1569606 2953 47.600002
0.92944354 -1.5213015 -1.1535966 2871.8 53
0.97861224 -1.5267498 -1.154538 2799.7778 57.666668
1.0210963 -1.5282007 -1.15347 2802.7778 61.777779
1.0750082 -1.5243953 -1.1528071 2774.4167 67.083336
1.1239855 -1.5306658 -1.152269 2765.7778 71.444443
1.1673461 -1.5219291 -1.1552036 2728 75.666672
1.2233016 -1.5294108 -1.1533382 2725.8184 80.454544
1.2714242 -1.5265789 -1.1530966 2762.4001 84.800003
1.320465 -1.5252883 -1.1548932 2673.2727 89
1.3753543 -1.5222439 -1.1549836 2602.4546 93.727272
1.4253092 -1.5288614 -1.1573279 2598.8184 97.454552
1.473168 -1.5215853 -1.1543134 2626.3848 101.69231
1.519088 -1.5228791 -1.1535547 2568.25 105.25
1.569766 -1.5182397 -1.1533599 2558.3335 109.33334
0.44015393 -1.4757588 -1.1539888 2898.7144 0.85714293
0.4723976 -1.4741296 -1.1580653 2844.5002 4.5714288
0.52518523 -1.4777671 -1.1565942 2882.0002 10.6
0.58211589 -1.485061 -1.1517496 2970.6667 17
0.61790156 -1.4739227 -1.1529059 2955.25 21.25
0.67437464 -1.4769027 -1.152988 2855.4546 27.454546
0.72177023 -1.4794109 -1.1537169 2853.1431 32.57143
0.77312487 -1.474781 -1.1526186 2810.6001 38.26667
0.83089364 -1.4755713 -1.1525656 2810.375 44.375
0.86836797 -1.4760246 -1.1543034 2788 48.222221
0.92132139 -1.4752951 -1.1549882 2799.5835 53.666668
0.97911632 -1.4748169 -1.1532664 2791.4546 59.545456
1.0332733 -1.4763724 -1.1539687 2791.6001 64.800003
1.066361 -1.4846435 -1.1545981 2767.6667 67.666672
1.1257818 -1.4788194 -1.1525536 2739.0002 73.571434
1.1884363 -1.4636891 -1.1512195 2751 80
1.2208362 -1.4699997 -1.1516498 2703.3335 82.666672
1.2784346 -1.4713348 -1.1531028 2700.8335 87.666672
1.3238516 -1.4768724 -1.1539605 2685.3335 91.333336
1.3742656 -1.4725612 -1.1532232 2653.7 95.800003
1.4273179 -1.4778011 -1.1543295 2623.1819 99.909096
1.4692092 -1.4787639 -1.1564161 2623 103.16667
1.5286182 -1.4748029 -1.1536564 2591.1001 108.1
1.5720605 -1.4861764 -1.1514304 2572 111
1.6042459 -1.4629412 -1.1504543 2562.5 114.5
1.6508844 -1.4838586 -1.1501098 2603 117
0.43686268 -1.4278291 -1.1551919 2865.9001 1.2
0.47512808 -1.4270971 -1.1560535 2852.3889 5.7222223
0.51450968 -1.4275881 -1.1536332 2862.125 10.375
0.57850587 -1.4282893 -1.1529225 3144.8 17.800001
0.62551576 -1.4271129 -1.1508154 3108.25 23.25
0.68146253 -1.42907 -1.1514945 2891.875 29.5
0.71779668 -1.4264768 -1.15306 2838.9167 33.583336
0.77747083 -1.4260411 -1.1544796 2844.3333 40.111111
0.83100349 -1.4302784 -1.1529527 2823.8889 45.777779
0.86699075 -1.4279741 -1.1507801 2812.5715 49.714287
0.92500049 -1.4232929 -1.1517978 2826.1111 55.888889
0.96986109 -1.4276496 -1.1527742 2819.7144 60.285717
1.0338459 -1.426777 -1.1525568 2792.0002 66.714287
1.0643358 -1.4307176 -1.1537825 2804 69.5
1.1175816 -1.4280792 -1.1513987 2782.4001 74.800003
1.1696244 -1.4327902 -1.1513 2751.8335 79.5
1.2216698 -1.4383926 -1.1522748 2754.5 84
1.2720826 -1.4273369 -1.1513401 2695.6667 89
1.327683 -1.4275467 -1.152499 2677.8 93.800003
1.3701737 -1.4304059 -1.1526288 2676.1431 97.285721
1.426558 -1.4197124 -1.1538219 2653.4001 102.4
1.4711359 -1.4374461 -1.1531538 2594.875 105.25
1.5227112 -1.4319493 -1.1535454 2607.2222 109.55556
1.5639194 -1.4275665 -1.1517974 2630.5 113
1.6295726 -1.426703 -1.1511767 2580.5 118
0.42996383 -1.3773909 -1.1539665 2863.2727 1.1818182
0.47004852 -1.3758154 -1.1571671 2962.1875 6
0.52038747 -1.374681 -1.1558012 2917.6875 12.0625
0.57613117 -1.3737279 -1.1517446 3078.375 18.75
0.64612734 -1.3698144 -1.1518443 3246 27
0.68843472 -1.3733048 -1.1521339 2890 31.75
0.71859932 -1.3710636 -1.1533022 2868.7 35.200001
0.76928443 -1.3786653 -1.1540914 2863.875 40.625
0.82862765 -1.3746033 -1.1538751 2881.25 47.25
0.8758204 -1.3730876 -1.1520013 2858.0002 52.428574
0.93205386 -1.3762665 -1.1532713 2836.4001 58.200001
0.95580673 -1.3573388 -1.1534323 2858 61.333336
1.021943 -1.373192 -1.1511354 2827.8572 67.571434
1.0821688 -1.366587 -1.150902 2792 73.800003
1.1151903 -1.3710734 -1.1531084 2791.5 76.75
1.1544572 -1.3591522 -1.152522 2794 81
1.2455062 -1.3777938 -1.1567948 2766 88.5
1.2686387 -1.3719893 -1.1517504 2708 91
1.320302 -1.3759421 -1.1524012 2696.5 95.375
1.3852972 -1.3712848 -1.1519945 2675.6667 101.16667
1.4208485 -1.3711073 -1.1520488 2681.5715 104.14286
1.4819239 -1.3765677 -1.1530666 2667.8335 108.83334
1.5229421 -1.3861791 -1.1514505 2604.2859 111.71429
1.5767527 -1.3695401 -1.1517384 2604.625 116.625
1.6465889 -1.3676667 -1.150391 2619 122
1.650661 -1.3526627 -1.1502666 2612 123
0.43231717 -1.3205289 -1.1539466 2964.231 2.3846154
0.47067007 -1.327013 -1.1537907 3105.6667 7
0.51521856 -1.3287557 -1.1533985 3117.4001 12.400001
0.57046819 -1.3211446 -1.1521887 3147.125 19.25
0.62749195 -1.323441 -1.151544 3227 26
0.67705232 -1.3206238 -1.1537462 2906.9092 31.818182
0.72828728 -1.3247756 -1.1551945 2895.0002 37.57143
0.76876724 -1.3267195 -1.1542311 2886.75 42.125
0.81900263 -1.3325092 -1.151809 2895.4001 47.600002
0.87407839 -1.3295311 -1.1519629 2867.7 53.700001
0.93179709 -1.3214186 -1.1521028 2862.0002 60.14286
0.9725759 -1.3252587 -1.1530054 2870.25 64.25
1.0149316 -1.3313 -1.1522249 2829.4001 68.400002
1.073029 -1.3274781 -1.151477 2821.8 74.400002
1.1346641 -1.3255305 -1.1515621 2780 80.5
1.1695912 -1.3140746 -1.151083 2789.6667 84.333336
1.2233626 -1.3283066 -1.1514521 2765.25 88.75
1.2940816 -1.3315573 -1.1519855 2695 95
1.3251488 -1.3242205 -1.1534692 2686.6667 98
1.3783345 -1.3312004 -1.1522381 2694.3335 102.33334
1.4281477 -1.3204869 -1.1522747 2687.2 107
1.48141 -1.3292924 -1.151378 2618 111
1.5188293 -1.3194946 -1.1521281 2624.4001 114.4
1.5673192 -1.3301628 -1.152761 2631.5 117.66667
1.6383694 -1.3303522 -1.1533209 2604.5 123
0.42830208 -1.2754856 -1.1547616 3025.7222 2.6111112
0.47466162 -1.2687736 -1.1539941 3077.5625 8.5625
0.52802587 -1.266217 -1.1532934 3019.4668 15.266667
0.57412314 -1.2729554 -1.1537265 2963.9231 20.769232
0.63529903 -1.2697475 -1.1533059 2923.5 28.25
0.67643851 -1.2720101 -1.1531738 2940 33.090912
0.72838128 -1.2750984 -1.1521333 2900.6667 39.111111
0.7708059 -1.2772299 -1.1526775 2905.6365 43.909092
0.82357812 -1.2734702 -1.1525378 2896.2859 50.000004
0.8778531 -1.2780079 -1.1524947 2887.5715 55.857147
0.92553997 -1.2863296 -1.1542053 2847 60.666668
0.97875386 -1.2743632 -1.1522433 2845.6001 66.800003
1.0225637 -1.2712275 -1.1534266 2864.4287 71.428574
1.071676 -1.2820814 -1.1531129 2829.1667 76
1.1338266 -1.2864308 -1.1519884 2783 82
1.1664507 -1.2660418 -1.1517395 2786.3335 86
1.2219783 -1.2720619 -1.1518135 2778.6001 91
1.2603939 -1.2858108 -1.1505954 2730 94
1.3120408 -1.2642236 -1.1528945 2717 99.5
1.3776207 -1.2649353 -1.1529307 2713.4001 105.2
1.4271004 -1.2857928 -1.1517513 2708.5 108.5
1.4696808 -1.27425 -1.1524835 2682.5 112.5
1.5250072 -1.2730851 -1.1527251 2689.6001 117
1.5816338 -1.2751479 -1.1522834 2692.6667 121.33334
1.6242393 -1.273246 -1.1534388 2650.6001 124.6
1.6693509 -1.2727084 -1.1524506 2649.5 128
1.7067697 -1.258201 -1.1500571 2609 131.5
0.43310586 -1.2216532 -1.1548983 2978.8823 4.1176472
0.47824374 -1.2231752 -1.1535296 2945.8333 9.8888893
0.53349078 -1.2234458 -1.153971 2964.8572 16.857143
0.5713973 -1.2368653 -1.1534851 2956.7144 21.285715
0.61689198 -1.2330062 -1.1520491 2961.4446 27
0.66413987 -1.2284217 -1.1525836 2943.3335 32.833336
0.71873999 -1.2343816 -1.1527543 2948.8335 39.166668
0.78097028 -1.2296885 -1.1518224 2923.4001 46.600002
0.83330935 -1.217038 -1.1519991 2913.6001 53
0.8707608 -1.2436986 -1.1528388 2889.25 56.25
0.92216033 -1.2348394 -1.1530558 2883.8 62.200001
0.96252453 -1.2236334 -1.1520433 2879.4001 67
1.0228189 -1.2215976 -1.152944 2878.4001 73.400002
1.0835937 -1.2149038 -1.1504884 2830.5 80
1.1140832 -1.2400024 -1.1510448 2818 82
1.1910267 -1.2485248 -1.1539366 2812 89
1.2805316 -1.2459643 -1.1521478 2745.5 97.5
1.3746973 -1.2320409 -1.1512636 2756 106.5
1.4012632 -1.2061608 -1.1503013 2732 110
1.4816968 -1.2198615 -1.1520984 2679 116
1.5284165 -1.2297466 -1.1531335 2734 119.25
1.5758702 -1.224974 -1.1517949 2680 123.25
1.6082739 -1.2417974 -1.1505286 2637 125
1.6695976 -1.2209324 -1.1514704 2608.5 130.5
0.39690804 -1.1867344 -1.1540141 3041.5 0
0.42610809 -1.175823 -1.1543158 2979.45 4
0.48874393 -1.1741278 -1.1536521 2994.9001 12.2
0.5324828 -1.1776209 -1.1530987 2987.5 17.75
0.57746965 -1.170926 -1.1511508 3021.1667 23.666668
0.60638952 -1.1827233 -1.1515443 2987.5 27
0.67075795 -1.1810234 -1.150978 2976.4287 35
0.71117878 -1.1767671 -1.1520226 3008 40
0.77009505 -1.1768475 -1.1525627 2976.5 47
0.82899535 -1.1811136 -1.1522201 2948.4287 53.714287
0.88110501 -1.1716566 -1.1512458 2957.5 60
0.9418968 -1.1763017 -1.1532726 2925 66.5
0.95663756 -1.1795638 -1.1528013 2915 68
1.0118008 -1.1761975 -1.1535715 2880.5 74
1.0572624 -1.1728586 -1.1507715 2837 79
1.1326586 -1.1627475 -1.15239 2892 87
1.1579921 -1.1840506 -1.1509317 2859.6667 88.666672
1.2311046 -1.1510717 -1.1537087 2836 97
1.2885784 -1.161011 -1.1517726 2755 102
1.3000669 -1.1841313 -1.1521821 2717 102
1.4345075 -1.1585358 -1.1503325 2735 115
1.4710119 -1.1810471 -1.1503551 2684 117
1.5156807 -1.1710594 -1.1523118 2664 121
1.6156418 -1.1686168 -1.1503556 2654.5 129
1.6968892 -1.1682565 -1.1508186 2657 135
1.7336619 -1.1805149 -1.1517347 2473 137
0.39354587 -1.1390091 -1.1516147 3028.3335 0.33333334
0.42472544 -1.1259998 -1.1535305 3020.1052 4.6842108
0.47734708 -1.123363 -1.1525065 2996.75 11.75
0.53546917 -1.1268214 -1.1528432 3020.8572 19.285715
0.5933848 -1.1225914 -1.1535025 3017.8335 26.833334
0.62645054 -1.1250552 -1.1525114 2956.75 31
0.66484725 -1.1187768 -1.1521444 3025.3335 36
0.70320052 -1.1332834 -1.1519537 3010.6667 40.333336
0.7631675 -1.1207002 -1.1519144 2971.25 48
0.81629813 -1.1163979 -1.1508033 2995 54.5
0.87084806 -1.1207616 -1.1554323 3007.5 60.5
0.92473382 -1.1214108 -1.1529028 2894.6667 66.666672
0.98857379 -1.1154754 -1.1510646 2902.6667 74
1.0099258 -1.1334456 -1.1507806 2864 75.599998
1.1318837 -1.1223539 -1.1512806 2837 88.666672
1.1742356 -1.1314046 -1.1509089 2825 92.5
1.2124444 -1.1134827 -1.1506903 2826.5 97
1.2826259 -1.1272721 -1.150627 2782.25 103
1.3814301 -1.1466866 -1.1503222 2758 111
1.4276483 -1.1123807 -1.1511389 2779 116.5
1.4862298 -1.1220477 -1.1500505 2714 121
1.5233155 -1.1219721 -1.1502479 2726 124
1.5775177 -1.1267006 -1.1511787 2694.3335 128
1.6258894 -1.140646 -1.1521714 2668 131
1.6612203 -1.111719 -1.1520628 2631 135
1.7011255 -1.1325467 -1.1506418 2667 137
1.7774179 -1.1090918 -1.1501577 2586 143.5
0.39083534 -1.0722227 -1.1522917 3060 1
0.42206851 -1.0753893 -1.15303 3038.4287 5.2142859
0.47485095 -1.0775101 -1.152657 3019.6667 12.333334
0.53518879 -1.0830677 -1.1526303 3045 20.25
0.57704103 -1.0768558 -1.1573533 3046 25.75
0.62893367 -1.0711756 -1.1529851 3014.875 32.75
0.67360878 -1.0761733 -1.1517448 3008 38.333336
0.71952438 -1.0789738 -1.1515086 2986.6667 44
0.77175272 -1.0694358 -1.1506847 2996.75 50.75
0.83038294 -1.0797672 -1.1531494 3000.3335 57.333336
0.8785544 -1.0534695 -1.1509329 2978 64
0.92399073 -1.0760901 -1.1516848 2897.6667 68.333336
0.97965986 -1.064018 -1.1519766 2839.5 75
1.0252514 -1.0708011 -1.1524152 2888 79.666672
1.0832942 -1.0647204 -1.1535574 2825 86
1.1254698 -1.0694946 -1.1524051 2838.2 90.200005
1.1721919 -1.0567777 -1.1511579 2818 95.5
1.3784834 -1.0724176 -1.1528845 2811 114
1.5350341 -1.0994518 -1.1500131 2699 126
1.5925694 -1.088655 -1.1502764 2653 131
1.7777238 -1.0774587 -1.15029 2563 145
0.38931981 -1.0222563 -1.1537032 3083.5557 1.5555556
0.42210522 -1.0230112 -1.1533573 3051.9375 6.125
0.46978459 -1.0282249 -1.1519111 3050.0715 12.642858
0.52477956 -1.0248675 -1.1521853 3044.8 20.200001
0.57566118 -1.0256698 -1.1523025 3034 27
0.62161082 -1.0173401 -1.1511164 3045 33.333336
0.66969466 -1.0213206 -1.1572331 3053.25 39.25
0.72784799 -1.0376008 -1.1512783 3051.3335 46.333336
0.7760222 -1.0312853 -1.1513783 3021.25 52.5
0.80900085 -1.01774 -1.1511436 2970 57
0.88057774 -1.01283 -1.1520166 2940.6667 65.666672
0.91865581 -1.0283735 -1.1522957 2949.5 69.5
0.97304451 -1.0270306 -1.15107 2899.25 75.75
1.0263356 -1.0320041 -1.151113 2877.2 81.400002
1.0734596 -1.0179471 -1.1514366 2868.3335 87
1.1126436 -1.0208235 -1.1511992 2870 91
1.1675677 -1.0215336 -1.1522655 2793.5 96.5
1.2380893 -1.0312873 -1.1520796 2814 103
1.2951691 -1.0407653 -1.1512914 2755 108
1.3150849 -1.0330602 -1.1547037 2791 110
1.3542429 -1.0498562 -1.1505682 2790 113
1.7150643 -1.0159905 -1.1501713 2599.5 143.5
0.38847929 -0.9788574 -1.1534709 3075.375 2.125
0.41793209 -0.9740591 -1.1533711 3071.6667 6.4000006
0.46946979 -0.97249508 -1.1530451 3083.4001 13.7
0.51946825 -0.97441965 -1.1522191 3089.5 20.625
0.55953008 -0.97816437 -1.1528314 3082.6667 26
0.62601966 -0.96812612 -1.1514615 3062.5 35.25
0.65838468 -0.95268565 -1.1509502 3077 40
0.73286366 -0.97900712 -1.1534356 3061.5 48.75
0.78567362 -0.9921453 -1.1515803 3022 55
0.82642794 -0.97012872 -1.1534728 2996.8335 60.666668
0.87650383 -0.96240234 -1.1526899 2983.6667 67
0.93653804 -0.96575081 -1.1508536 2944.5 74
0.95695341 -0.97506726 -1.1504507 2929.5 76
1.0202185 -0.97447675 -1.1524104 2907.6667 83
1.0719023 -0.96238518 -1.1541839 2879.5 89
1.1305618 -0.99428916 -1.1505901 2822 94
1.2143917 -0.97323769 -1.1566073 2883 103
1.2927872 -0.9895364 -1.1525382 2837 110
1.3217672 -0.9595015 -1.1529435 2804 114
1.7088792 -0.9954977 -1.1503788 2544 144
0.38527751 -0.92643905 -1.153486 3111.0835 2.5
0.42780492 -0.92269588 -1.1537246 3094.2144 8.7142859
0.47343111 -0.92438018 -1.1534572 3088.2222 15.222222
0.53472233 -0.92010874 -1.1523595 3101 24
0.5820843 -0.9260543 -1.1525923 3070.4001 30.4
0.6260407 -0.92443204 -1.1505413 3068 36.5
0.67685384 -0.92134976 -1.1513679 3058.3335 43.333336
0.70415974 -0.93048763 -1.1510789 3029.3335 46.666668
0.7827602 -0.92309409 -1.1507723 3051 57
0.82987702 -0.92702454 -1.1519779 2988 62.666668
0.87214482 -0.92724764 -1.1519356 3008 67.800003
0.91757655 -0.91752779 -1.1533959 2984.5 73.5
0.97666097 -0.91709828 -1.1505349 2986.5 80.5
1.028841 -0.92310596 -1.1527299 2901 86
1.0766082 -0.92156047 -1.1512027 2874.6667 91.333336
1.1195829 -0.92428994 -1.1517814 2871 95.75
1.1541977 -0.91102159 -1.1500434 2838 100
1.2281861 -0.92004699 -1.1505387 2802.3335 107
1.3243562 -0.90111828 -1.1501179 2817 117
1.3799504 -0.92075926 -1.1527811 2807 121
1.6378096 -0.92616385 -1.1500895 2680 142
1.9076934 -0.91570961 -1.1507502 2534 161
0.38612425 -0.87664104 -1.1535853 3087.8235 3.4117646
0.42044067 -0.87249267 -1.1521647 3100.5 8.583334
0.46038288 -0.88406628 -1.1531219 3130.3335 14.166667
0.54422247 -0.89082408 -1.1530545 3052 26
0.57394034 -0.87854838 -1.1517549 3050 30.5
0.62065572 -0.89158344 -1.1523182 3065.8 36.600002
0.70958424 -0.89323694 -1.1518681 3060.5 48.5
0.77290583 -0.85607177 -1.1502658 3028.5 58
0.87981421 -0.89512122 -1.1500573 2995 70
0.92431766 -0.87594599 -1.1506208 2950.4001 76
0.98512453 -0.87456542 -1.1529177 2931 83
1.0277083 -0.87297225 -1.1506727 2911.5 88
1.0735693 -0.8793987 -1.1511416 2937.75 92.75
1.1295974 -0.87257254 -1.1510184 2853.5 99
1.1818551 -0.89101034 -1.1529555 2837.5 103.5
1.2088425 -0.87609315 -1.1503859 2852 107
1.271042 -0.89566386 -1.1540942 2846 112
1.3202149 -0.86743081 -1.1518005 2867 118
0.37764341 -0.82797939 -1.1539063 3112.6001 2.9000001
0.41723737 -0.82765037 -1.1528171 3122.1111 8.8888893
0.46797925 -0.81796569 -1.1535909 3146.2 16.6
0.53513873 -0.81773674 -1.1510377 3093 26.5
0.5811553 -0.82175547 -1.1508869 3110.5 33
0.64985603 -0.84390008 -1.1507524 3040 42
0.65698391 -0.84358472 -1.1503761 3117 43
0.94127518 -0.81737185 -1.1547025 2983 80
0.99254698 -0.80989915 -1.1507409 2944.5 86.5
1.0282362 -0.82377744 -1.1509825 2912 90
1.1490782 -0.82393503 -1.1522894 2904 103
1.1752852 -0.84137678 -1.1518797 2831 105
1.291766 -0.83094841 -1.150497 2844 117
0.37748274 -0.76938736 -1.1528873 3130.1001 3.8
0.43015596 -0.76311678 -1.1521672 3138.5 12
0.4867298 -0.77649516 -1.1505131 3134 20.333334
0.5144425 -0.79212838 -1.1533307 3148 24
0.57632679 -0.75659966 -1.150136 3066 34
0.6119374 -0.79857475 -1.1503317 3142 38
0.68131804 -0.78260988 -1.1530056 3076 48
0.83378756 -0.78937995 -1.1515791 3016.5 68
0.87928581 -0.79687262 -1.1502783 2992 73.5
1.0018038 -0.7971155 -1.151758 2913 88
1.0782261 -0.77445233 -1.1509938 2964.5 97.5
1.1339458 -0.76184601 -1.1515095 2880 104
1.1733137 -0.78750885 -1.1525446 2837 107
0.37553772 -0.72314262 -1.1521332 3140 4.2222223
0.42161131 -0.72753155 -1.1520752 3130 11.333334
0.46413136 -0.73774469 -1.1519206 3154 17.666668
0.50451738 -0.72699761 -1.1520622 3146 24
0.56030828 -0.70112669 -1.1503313 3162 33
0.79895741 -0.71654302 -1.1508169 3089 66
1.0435817 -0.71494442 -1.1506197 2992 96
0.37631172 -0.67695403 -1.1535959 3168 5
0.41553104 -0.67284667 -1.1517317 3129 11.333334
0.46667394 -0.6869216 -1.1535634 3195 19
0.69932151 -0.6674608 -1.1502894 3097 54
1.0978897 -0.66495216 -1.1500379 2960 104
1.1475426 -0.67327207 -1.1506562 2927 109
0.37115908 -0.61847055 -1.1539786 3164.5 5
0.47628605 -0.63839471 -1.1516905 3151 21.5
0.56401372 -0.63203162 -1.1545273 3176 35
0.96559161 -0.62806046 -1.1515214 2989 90
1.0203639 -0.64228952 -1.1512091 2996 96
0.34751627 -0.55235738 -1.153522 3240 2
0.36862308 -0.55527914 -1.1522672 3238 5.5
0.41674957 -0.58139837 -1.1526438 3217 13
0.58673924 -0.57198328 -1.150847 3148 40
0.35136232 -0.5290392 -1.15093 3263 3
0.46768668 1.3933532 -1.1500289 2901.5 638
0.48698586 1.4651102 -1.1509092 2836 637
0.4918623 1.5257215 -1.1506689 2743 637.5
0.50529283 1.5263908 -1.1512766 2764 636
0.5643844 1.5092832 -1.1504005 2891 629
0.79359877 1.5081557 -1.1510168 2736 604
0.51481295 1.586962 -1.1500276 2771 636
0.49387717 1.6890256 -1.1506802 2712 640
0.50312597 1.6884192 -1.1503124 2709 639
0.511473 1.7425982 -1.1502221 2744 639
0.575643 1.7238537 -1.1505699 2688 632
0.57616085 1.7809287 -1.1505876 2706 633
0.62395382 1.7721641 -1.1514192 2716.5 628
0.7755636 1.7741597 -1.151394 2645.6667 613
0.90755391 1.7968634 -1.1500015 2671 601
1.071468 1.7609038 -1.1530708 2690 585
0.51935923 1.8288727 -1.1534146 2694.6001 639.60004
0.56854659 1.8197254 -1.1534638 2666.5 634.5
0.62889916 1.8141782 -1.151256 2680.6667 628.33337
0.67571509 1.8286693 -1.1505014 2624.5 624
0.7257185 1.8217101 -1.1525611 2642.6667 619
0.76435047 1.8081074 -1.1565261 2695 615
0.87422967 1.8281479 -1.1513882 2659.5 605
0.91879195 1.832158 -1.1521611 2660 601
1.2032034 1.8330281 -1.1502969 2626 576
0.53065312 1.8800743 -1.1518221 2647 639.25
0.56932211 1.873649 -1.1519973 2640.3335 635.33337
0.6184572 1.8721472 -1.1535264 2629 630.5
0.68462855 1.8693063 -1.1521184 2565.5 624
0.70762002 1.856997 -1.1505046 2618 621.5
0.75334644 1.8955858 -1.1505756 2639 618
0.8105346 1.8882776 -1.1525559 2607.5 612.5
0.87826914 1.8782105 -1.1527278 2616.6667 606
0.98567414 1.8690574 -1.151772 2621 596
1.0230888 1.8634957 -1.1504898 2627 592.5
1.2193544 1.8717444 -1.150645 2575.5 576
0.54101384 1.9295646 -1.1514316 2591.5 639
0.57006472 1.9322343 -1.1532652 2624 636.25
0.62526906 1.9359416 -1.1520441 2617.6001 631
0.66840982 1.9150856 -1.1527096 2633.75 626.5
0.73582542 1.9097159 -1.1530055 2657 620
0.77757037 1.9281983 -1.1520326 2588 616.5
0.93253857 1.9139808 -1.150575 2607 602
1.0123988 1.915236 -1.1518358 2591 595
0.56484115 1.9780595 -1.1540843 2612.1667 637.5
0.63820684 1.9752364 -1.1528324 2582.25 630.5
0.66072673 1.971947 -1.1534214 2596 628.33337
0.71758163 1.9712461 -1.1519361 2599.1431 623
0.78761977 1.9793248 -1.1525596 2610.5 616.75
0.80771571 1.9831866 -1.1513925 2556 615
0.87533683 1.9656776 -1.1521199 2590.75 608.5
0.93969893 1.9738483 -1.1514 2609.6667 603
0.96978164 1.9725358 -1.1507877 2564 600.33337
1.0212343 1.9759526 -1.1519475 2574.75 596
1.1778071 1.9793912 -1.1513436 2553 583
1.2823354 1.9761238 -1.1503987 2529 574.5
1.3719105 1.9695119 -1.1513836 2515.3335 567.33337
1.4470994 1.9516975 -1.1507514 2537 561
1.4601473 1.951082 -1.1504571 2481 560
0.54551947 2.0225267 -1.1529872 2555.5 640
0.57836181 2.0163522 -1.1539509 2578.1667 636.83337
0.62957692 2.0273783 -1.1547022 2569.75 632.25
0.67007416 2.0313113 -1.154952 2597.2 628.60004
0.71946335 2.0154428 -1.1531638 2571.5 623.75
0.77385247 2.0233684 -1.154845 2576.5 619
0.83611023 2.0226319 -1.1534724 2543.6001 613.40002
0.86194485 2.0193539 -1.1508346 2569.6667 611
0.92481816 2.0253043 -1.1525166 2552 605.66669
0.97112119 2.0382547 -1.151438 2539.5 602
1.0176504 2.0095465 -1.1514595 2555 597.25
1.0754659 2.0294099 -1.1536384 2551 593
1.1114308 2.0135751 -1.1510028 2535.75 589.5
1.1719662 2.0270238 -1.1527287 2529.2 585
1.2260363 2.0325084 -1.1517717 2493 580.83337
1.2780299 2.0247817 -1.1519046 2524 576.5
1.3131961 2.0467544 -1.1517103 2505 574.5
1.3915323 2.0306072 -1.1515794 2483.6667 568
1.4419903 2.0231142 -1.152143 2422 564
1.5356565 2.0185874 -1.1500535 2402 557
0.57344842 2.074264 -1.1571 2559.5557 638.22223
0.62389636 2.0721226 -1.1561768 2564.4446 633.55554
0.67367846 2.0780036 -1.1561852 2565.5715 629.14288
0.72415167 2.0701518 -1.1539037 2560.1431 624.42859
0.76722378 2.0726655 -1.1531749 2542.625 620.625
0.8218618 2.0749292 -1.1559356 2575 615.88892
0.88461238 2.0660133 -1.1548251 2542 610.20001
0.92047971 2.0775809 -1.1534891 2538.25 607.375
0.98340327 2.0698812 -1.155291 2522.5715 601.85718
1.0267613 2.0850856 -1.1529636 2503.4001 598.60004
1.0736723 2.0724349 -1.1531498 2502.375 594.375
1.1352651 2.0837986 -1.1544338 2511 589.71429
1.1792369 2.0791168 -1.1513882 2505.6667 586
1.2210553 2.0822682 -1.1534424 2479.5 582.83337
1.2713001 2.0855279 -1.1519583 2496 579
1.3211527 2.0796578 -1.1525407 2474.8335 575
1.3867502 2.0872788 -1.1527405 2455 570.33337
1.4110653 2.0716453 -1.1530023 2466.3335 568
1.4778125 2.0822673 -1.1526878 2421.5 563.5
1.5031862 2.0783544 -1.1506168 2446.5 561.5
1.5821147 2.0924537 -1.1523238 2394 556.5
1.6044281 2.0668707 -1.1514577 2454 554
1.6930083 2.0925014 -1.1530071 2386 549
1.7134545 2.0638015 -1.1503494 2405.5 546.5
0.57959539 2.1284881 -1.1597011 2526.25 638.5
0.62759203 2.1245286 -1.1594952 2541.125 634.125
0.67534614 2.1218214 -1.1557225 2528.6667 629.77777
0.72467595 2.1193855 -1.1571909 2529 625.375
0.78039265 2.1257179 -1.1575714 2525 620.625
0.82341468 2.1189098 -1.1547517 2496.5715 616.71429
0.87568313 2.1181519 -1.1564057 2527.7778 612.22223
0.92411959 2.1284549 -1.1546457 2525.5 608.33337
0.97227758 2.1171076 -1.1538177 2498.25 604
1.0253448 2.1306665 -1.156496 2507.2859 600
1.0716436 2.1162958 -1.1543553 2515.8 595.79999
1.1218357 2.1189363 -1.1552043 2515.8335 591.83337
1.1729935 2.123714 -1.1534265 2475.875 587.875
1.229038 2.1210351 -1.154291 2500.8572 583.42859
1.2734843 2.1368282 -1.1542909 2485 580.5
1.3221 2.1366491 -1.1530466 2438.2 576.79999
1.3752316 2.1263998 -1.1526409 2441.75 572.5
1.4216372 2.124218 -1.1517034 2433.25 569
1.4743856 2.132329 -1.1529617 2437.75 565.5
1.5159307 2.1171167 -1.1518697 2435.5 562
1.5663215 2.1175325 -1.1523995 2420 558.5
1.6687362 2.1308985 -1.1509491 2380 552
1.712009 2.1402216 -1.1516404 2364.5 549.5
1.7808832 2.1259599 -1.1512288 2317.75 544.5
1.8206238 2.1392648 -1.1517513 2307 542.5
2.0063908 2.1215668 -1.1501195 2263.5 530.5
0.5819959 2.1759717 -1.1612315 2513.25 639
0.6267857 2.1736183 -1.1606336 2505.1111 635
0.67554492 2.176636 -1.1586561 2489 630.75
0.72703487 2.1742389 -1.1584234 2497.2222 626.22223
0.77897668 2.1761239 -1.1582131 2487.5557 621.77777
0.82373542 2.170249 -1.1583371 2502.6667 617.83337
0.87358558 2.1769323 -1.15922 2474.3333 613.77777
0.92517537 2.1756203 -1.1585697 2486.5715 609.42859
0.97136784 2.1715064 -1.1575987 2491.5 605.5
1.0301554 2.1735725 -1.157347 2496.875 600.75
1.0778272 2.1667047 -1.1565613 2478.8572 596.71429
1.1256905 2.1695871 -1.1574447 2481.875 593
1.1785414 2.175395 -1.1559397 2458.2859 589
1.2240145 2.168287 -1.1563286 2446.8572 585.28577
1.2781613 2.1791661 -1.1566161 2432.1667 581.5
1.3263258 2.1705565 -1.154932 2406 577.60004
1.3715881 2.1774204 -1.1562823 2435.25 574.5
1.4198642 2.1687977 -1.1540067 2432.3335 570.66669
1.4653801 2.1813211 -1.1542436 2429.5 567.83337
1.5274519 2.1741168 -1.1552868 2402.5 563.25
1.5819864 2.1664281 -1.1542619 2383 559.20001
1.62617 2.1838856 -1.1528119 2358.8 556.79999
1.6700789 2.1821425 -1.1521224 2383.2 553.79999
1.7269 2.1855934 -1.1515213 2302.2 550.20001
1.7668375 2.1763911 -1.1533151 2287.3335 547.33337
1.8188283 2.189575 -1.1514174 2269.5 544.5
1.8767245 2.1778107 -1.1523844 2260 540.5
1.9094667 2.17768 -1.1525112 2222.5 538.5
1.9844196 2.1692123 -1.1506971 2177 533.66669
2.0198905 2.1910381 -1.153384 2194 532.5
2.130357 2.1860652 -1.1513476 2047 526
0.58871174 2.2152226 -1.1637336 2496.2 639
0.62583375 2.2302642 -1.164251 2597.7144 636
0.67184591 2.2201934 -1.1611502 2521.3335 631.83337
0.73038918 2.2303243 -1.1615551 2478.125 627
0.78354955 2.2297974 -1.1621838 2473.5 622.5
0.8245582 2.22124 -1.1605358 2498.4287 618.85718
0.87660027 2.2295706 -1.1612308 2456.4287 614.71429
0.92474294 2.2296319 -1.1604962 2452.875 610.75
0.97545218 2.2254295 -1.1585439 2462.75 606.5
1.0255152 2.2278686 -1.1611791 2474.4287 602.57147
1.0714391 2.2216718 -1.1581148 2453.4287 598.71429
1.1242406 2.2282462 -1.1601205 2444.6667 594.77777
1.1768665 2.2243311 -1.1580962 2434 590.57147
1.2265648 2.2216263 -1.1590114 2441.5715 586.71429
1.2725649 2.2250085 -1.1576406 2434.3335 583.33337
1.321476 2.218724 -1.1569796 2436.25 579.5
1.3798376 2.2202146 -1.1570706 2386.4287 575.28577
1.4216882 2.220464 -1.1548967 2399.75 572.25
1.4797111 2.2286861 -1.1596189 2394 568.5
1.5203382 2.2233727 -1.1554983 2349.1431 565.42859
1.5738671 2.2247763 -1.1569023 2367.1667 561.83337
1.6171898 2.2230608 -1.1538572 2354.8 558.79999
1.6674557 2.2313743 -1.1557149 2347 555.79999
1.7196 2.2280536 -1.1535294 2331.5 552.25
1.7698816 2.2311471 -1.1542892 2290.6667 549.16669
1.8255384 2.2216167 -1.154323 2278.3335 545.33337
1.8766202 2.2242479 -1.1524284 2234.75 542.25
1.9218506 2.2320571 -1.151878 2250.2 539.79999
1.9872736 2.2248631 -1.1522143 2193 535.66669
2.0215549 2.224571 -1.1522597 2204.6667 533.66669
2.0959516 2.2266765 -1.151462 2109 529.5
2.1147277 2.2276411 -1.1520638 2114.5 528.5
2.1767719 2.2386351 -1.1512049 2056.5 525.5
2.2037675 2.2118955 -1.1513063 2097 523
2.2592497 2.2366004 -1.1506134 2075 521
2.3536808 2.2083273 -1.1502795 2056 515
2.400737 2.2410047 -1.1537573 2046 514
0.59042352 2.2772236 -1.1659211 2460.25 639.75
0.62324333 2.27338 -1.162528 2631.5715 636.85718
0.67495853 2.2744362 -1.1649337 2565.125 632.5
0.72165626 2.2754486 -1.1641841 2460.1431 628.57147
0.76968014 2.2761004 -1.1648161 2443.4287 624.57147
0.82896769 2.2727234 -1.1613451 2428.8889 619.55554
0.87488061 2.2718258 -1.1639637 2470.6001 615.79999
0.92292833 2.2775435 -1.1620641 2436.6667 612
0.97331697 2.2796035 -1.1617382 2435.8572 608
1.0274428 2.2711494 -1.1616659 2435 603.5
1.0807152 2.2743788 -1.1608275 2453.2 599.40002
1.1229789 2.2762661 -1.1601871 2442 596.16669
1.178265 2.2785969 -1.1593952 2399.1667 592
1.2213922 2.2770751 -1.1598402 2408.5715 588.71429
1.2706994 2.2760963 -1.1586266 2385.375 585
1.3247694 2.2750349 -1.1583723 2378.5 581
1.3765792 2.2758787 -1.1581234 2370.1431 577.28577
1.4243585 2.2706039 -1.1576321 2373.2859 573.71429
1.4787844 2.2701666 -1.1557308 2363.5715 569.85718
1.5274082 2.277143 -1.1592546 2353.4001 566.79999
1.5744609 2.2720068 -1.1568578 2335.2 563.40002
1.6252826 2.2747092 -1.1589539 2301.7144 560.14288
1.676 2.2652974 -1.1539444 2332.4001 556.40002
1.7205693 2.2766235 -1.1580162 2284.25 554
1.7761074 2.2705834 -1.1545048 2296.4001 550.20001
1.8168913 2.265331 -1.1561651 2274.5 547.5
1.8722627 2.2775106 -1.1534905 2236.8335 544.5
1.9350677 2.2713556 -1.1530521 2238 540.5
1.980669 2.2764556 -1.1524448 2194 538
2.025934 2.2748141 -1.1529799 2159 535.33337
2.0801964 2.2816942 -1.152216 2139.25 532.5
2.1311808 2.2649031 -1.1508319 2075.5 529
2.1759877 2.2820616 -1.1529641 2072.5 527.25
2.2238727 2.2651684 -1.1515085 2117 524
2.2625208 2.2921026 -1.1516464 2052 523
2.3210256 2.2794962 -1.1524782 2055 519.5
2.3989277 2.2909408 -1.1518391 2023 516
2.4301195 2.2796791 -1.1508644 1965.3334 514
0.59933603 2.347506 -1.1705145 2429 640
0.6253556 2.326612 -1.1670194 2480.75 637.5
0.67572039 2.3226783 -1.1638526 2447.6001 633.20001
0.72306889 2.3225582 -1.1665275 2472.1431 629.28577
0.77647889 2.3282003 -1.1676893 2428.4287 625
0.81928658 2.328217 -1.1665981 2423.8335 621.5
0.87566108 2.321007 -1.1647857 2442.6667 616.77777
0.92892206 2.3209343 -1.1634716 2439.3335 612.5
0.97716254 2.3204389 -1.1635144 2415.6667 608.66669
1.030575 2.3234005 -1.1647158 2425 604.57147
1.0705857 2.3165007 -1.1633606 2422.5715 601.28577
1.1315926 2.3253579 -1.1642814 2407.8572 596.85718
1.1714793 2.3174636 -1.1612047 2372.2 593.60004
1.2297873 2.3256085 -1.1629013 2449 589.5
1.2683623 2.3259542 -1.1578176 2376.8 586.60004
1.3281374 2.331655 -1.1619984 2377.5 582.5
1.3687533 2.3297617 -1.1589754 2370.3335 579.5
1.4229233 2.3299136 -1.1603521 2365.4287 575.71429
1.4724576 2.3305922 -1.1590252 2315.8572 572.28577
1.5238034 2.3279779 -1.1599425 2309.8572 568.71429
1.5704067 2.326205 -1.1583182 2290.6667 565.5
1.6224518 2.3247366 -1.1578715 2304.875 562
1.6762012 2.3244424 -1.1580262 2318.3335 558.5
1.7273698 2.3219278 -1.1580175 2299.5715 555.14288
1.7718359 2.323956 -1.1569723 2256.8 552.40002
1.8238233 2.3190863 -1.1561497 2233.75 549
1.8798105 2.3236127 -1.1553909 2208.25 545.75
1.9299381 2.3163321 -1.1553571 2212.5 542.5
1.9653291 2.304364 -1.1562328 2210 540
2.0337894 2.3301337 -1.1559891 2169.5 537
2.0647485 2.3178768 -1.1535358 2129.75 534.75
2.1377206 2.3254056 -1.1544123 2093 531
2.1705842 2.3251226 -1.1542802 2081 529.20001
2.226788 2.3342242 -1.152204 2072.5 526.5
2.271492 2.3300018 -1.1527178 2060.6667 524
2.3039846 2.3213151 -1.1532927 2059 522
2.3796301 2.3310242 -1.1514653 1991 518.5
2.444798 2.3221052 -1.1545085 2034 515
2.4587648 2.3419621 -1.15031 1966 515
0.62714523 2.3710582 -1.1689019 2412.8 638
0.67410475 2.3807817 -1.1697962 2434.8572 634.28577
0.72338063 2.3728192 -1.1669947 2429.3333 630.11115
0.77731538 2.3861661 -1.1701058 2411.125 626
0.824534 2.3769352 -1.1657069 2416.875 622
0.87624776 2.3738153 -1.1668503 2413.8335 617.83337
0.92375791 2.3714769 -1.1635292 2390 614
0.97759086 2.3732657 -1.1657606 2387.5715 609.85718
1.0252848 2.3777065 -1.1662153 2376.7144 606.28577
1.0798283 2.3731124 -1.1652358 2388 602
1.1219589 2.3728206 -1.1639009 2372.6001 598.79999
1.173933 2.3680794 -1.1624401 2375.2222 594.77777
1.2285026 2.3659139 -1.1635042 2366.4287 590.71429
1.2787945 2.377058 -1.1611135 2369.8335 587.33337
1.3198528 2.3690965 -1.1631621 2355.6001 584.20001
1.3759897 2.3851385 -1.1608942 2345.5 580.66669
1.4236063 2.373467 -1.1601404 2340.6001 577
1.4733702 2.3712823 -1.1593629 2286.75 573.5
1.5245976 2.3702664 -1.1591477 2324.6667 570
1.5767899 2.3797851 -1.159366 2294.5 566.83337
1.6343098 2.377223 -1.1596322 2294.5 563
1.6745157 2.3807302 -1.1579758 2284.3335 560.5
1.7222983 2.3782949 -1.1584809 2270 557.40002
1.7748233 2.3758795 -1.1561368 2246 554
1.8269076 2.3744769 -1.1557152 2202.75 550.75
1.877299 2.3739088 -1.1567814 2195.2859 547.71429
1.9257053 2.3681576 -1.1545761 2180.8 544.60004
1.9774592 2.3750408 -1.1558423 2144.2859 541.85718
2.0231872 2.369242 -1.1542447 2095 539
2.0736566 2.3749788 -1.155949 2138.2 536.40002
2.1209893 2.3653166 -1.1543006 2091.8 533.40002
2.1754403 2.3806777 -1.1536225 2003.6667 531
2.2272947 2.3688185 -1.1537746 2021.8 527.79999
2.3334734 2.3735337 -1.1545725 2000.25 522.5
2.4715896 2.3711109 -1.1505761 1940 515.5
2.6077235 2.3686678 -1.1501464 1940 509
2.7923222 2.3987381 -1.1511898 1808 502
0.62533653 2.4220405 -1.170673 2387.25 638.875
0.67795098 2.4263787 -1.1701343 2376.8335 634.66669
0.72476912 2.420984 -1.168218 2400.8 630.79999
0.78089374 2.4307067 -1.1704397 2379.25 626.5
0.82256544 2.4216065 -1.1661613 2389.3335 623
0.87617397 2.42275 -1.1712233 2417.4287 618.85718
0.92510074 2.4222393 -1.167065 2339 615
0.97110075 2.4190373 -1.1686652 2406 611.40002
1.0271877 2.4239166 -1.1654438 2364.2 607.20001
1.069651 2.4172997 -1.1624231 2375.6001 603.79999
1.1255662 2.4307649 -1.165926 2342.1431 600
1.175163 2.4240825 -1.1628966 2344.5715 596.14288
1.2236141 2.4320076 -1.1649413 2347.4287 592.85718
1.2731827 2.4270599 -1.1627748 2339.7144 589.14288
1.3263199 2.4299428 -1.1655958 2317.5 585.5
1.3717531 2.430871 -1.1637876 2323.8335 582.33337
1.4249046 2.425024 -1.1637471 2314.3335 578.5
1.473393 2.4194512 -1.1612585 2311.3335 575
1.5244375 2.4212532 -1.160563 2301.375 571.625
1.5715026 2.4250598 -1.1620705 2296.3335 568.66669
1.6217624 2.4215209 -1.1620593 2294 565.28577
1.6657221 2.4247251 -1.1574664 2255.5 562.5
1.7201945 2.426656 -1.1617147 2258.2 559.20001
1.7729466 2.4307094 -1.1574811 2247.25 556
1.8309072 2.4272976 -1.1598381 2198.2 552.40002
1.8790048 2.4254177 -1.1561991 2174.4001 549.40002
1.9235233 2.4312074 -1.1574167 2128.3335 547
1.980258 2.4260125 -1.1551918 2131.6667 543.5
2.0258169 2.428906 -1.1545255 2076.75 541
2.068193 2.4244907 -1.1561254 2109 538.5
2.1292536 2.422605 -1.1520432 2092.25 535
2.1803956 2.4281626 -1.1550435 2039.5 532.5
2.2297068 2.4211552 -1.1533037 2030.6 529.60004
2.2734582 2.4238679 -1.1520866 1982.4 527.40002
2.3245771 2.4241037 -1.1524943 1968.4 524.79999
2.3715134 2.4221087 -1.1508601 1969.3334 522.33337
2.4355135 2.4172168 -1.1511734 1886 519
2.4719048 2.4200926 -1.1504591 1925.6667 517.33337
2.527626 2.4285817 -1.1502609 1909.5 515
2.5976632 2.4340117 -1.1532931 1892 512
0.63310838 2.4766178 -1.1721759 2365.3335 639
0.68065971 2.4810472 -1.1732558 2363.1431 635.28577
0.72261429 2.4736705 -1.1712564 2349.6667 631.83337
0.77501929 2.4766469 -1.170624 2363.375 627.75
0.82545543 2.468802 -1.1694652 2353.3335 623.66669
0.87372983 2.4730272 -1.1694278 2372.125 620
0.92650169 2.4747877 -1.1705787 2364 616
0.97317624 2.4686036 -1.1668255 2355.1431 612.28577
1.0231445 2.4746876 -1.1721115 2368 608.71429
1.0737387 2.4718676 -1.1676345 2331.5 604.83337
1.125927 2.4794202 -1.1697018 2336 601.20001
1.1743577 2.4743524 -1.1646912 2306.5 597.5
1.2315509 2.4775879 -1.1665865 2341.25 593.5
1.2799028 2.4765103 -1.1626894 2313.5 590
1.3235366 2.4834661 -1.1650956 2323.8335 587.16669
1.3796639 2.4742813 -1.162183 2301.5 583
1.4247694 2.4813972 -1.1646861 2272.8335 580.16669
1.4830803 2.4800627 -1.1633844 2285 576.20001
1.5219319 2.4755764 -1.1636413 2280.5 573.5
1.5744623 2.4670696 -1.159816 2290 569.75
1.6210686 2.4795852 -1.1639559 2237 567.20001
1.6714307 2.4721875 -1.1602516 2198 563.71429
1.7250831 2.4758277 -1.1612833 2195.8335 560.5
1.7719845 2.4807732 -1.1624691 2197.4001 557.79999
1.8233449 2.4704387 -1.1582273 2179.2859 554.28577
1.8782706 2.4695342 -1.1591235 2140.75 551
1.9227493 2.4732866 -1.1575866 2114 548.5
1.9675703 2.4695468 -1.1582016 2096.4001 545.79999
2.0245814 2.4817269 -1.158622 2119 543
2.0782914 2.4651294 -1.1567197 2087.6001 539.40002
2.1301239 2.4771416 -1.1570019 2034.4 537
2.1783426 2.4676614 -1.1527667 2032.5 534
2.2310688 2.473897 -1.1560533 2000.5 531.5
2.2719505 2.4866531 -1.153712 1990.6 529.79999
2.3367229 2.473732 -1.1517628 1939.3334 526
2.3830884 2.473268 -1.1518061 1910 523.66669
2.412864 2.4807868 -1.1531645 1913.5 522.5
2.4737949 2.4934058 -1.152321 1902.6667 520
2.5319545 2.4603758 -1.1512989 1950 516
2.6428752 2.4899395 -1.1516453 1788 512
2.7184858 2.4867394 -1.1505628 1780 508.5
2.7517185 2.485584 -1.1502057 1806 507
2.9403222 2.4830568 -1.1500853 1773 499
0.63697535 2.5227396 -1.1752023 2348.6667 639.33337
0.66774642 2.5179069 -1.1730618 2340.3335 636.83337
0.72858495 2.5257397 -1.1752102 2337.8 632.20001
0.77716142 2.5235889 -1.1744593 2381.4001 628.40002
0.82773107 2.5185559 -1.1723372 2358.8 624.40002
0.87479198 2.5280223 -1.174217 2364.3335 621
0.91723204 2.5157998 -1.1686082 2362 617.5
0.97627729 2.5348616 -1.1731601 2315 613.5
1.0245917 2.5167298 -1.1696666 2325 609.5
1.0794313 2.5279589 -1.1690481 2297 605.71429
1.1324077 2.5249321 -1.1683123 2310.6001 601.79999
1.1726913 2.522049 -1.1681489 2322.6667 598.83337
1.2276516 2.5244346 -1.1686206 2279.8 595
1.2667879 2.5227094 -1.1680287 2266.8 592.20001
1.3285027 2.5332835 -1.1675625 2299.8 588.20001
1.3710129 2.5224521 -1.1670303 2245.8335 585
1.4324173 2.5339351 -1.1684674 2278.8 581.20001
1.4705482 2.5192823 -1.1646479 2270 578.20001
1.5336936 2.5287702 -1.1694936 2241 574.40002
1.5734031 2.5189426 -1.1665275 2230.5 571.5
1.6248993 2.5291491 -1.1643879 2206.75 568.5
1.6705533 2.5176411 -1.1628332 2206.75 565.25
1.7306974 2.5310855 -1.1659068 2199.3335 562
1.7731432 2.5204239 -1.1611061 2161.6667 559
1.8255045 2.5238051 -1.1630037 2165.6667 556
1.874504 2.5284526 -1.1592916 2108.2 553.20001
1.9211845 2.5140049 -1.158914 2079.6667 550
1.9785101 2.5279167 -1.159637 2101.2 547.20001
2.0221694 2.5210538 -1.1589586 2117 544.5
2.0816898 2.529274 -1.1593258 2083 541.5
2.1238189 2.5242314 -1.1571907 2070 539
2.1756935 2.5287852 -1.1580832 2032.8 536.40002
2.228004 2.5244956 -1.1579098 1966.5 533.5
2.2783175 2.5410821 -1.1583209 1952 531.5
2.3246396 2.5214467 -1.1554945 1948.6 528.40002
2.3799295 2.5246744 -1.1550398 1895 525.75
2.4288323 2.5293446 -1.1536964 1878 523.5
2.4689994 2.5278177 -1.1532118 1913.5 521.5
2.54004 2.5245259 -1.1520787 1847 518
2.5744929 2.5266519 -1.1532673 1834 516.5
2.6004288 2.5197258 -1.1501809 1781 515
2.714627 2.522069 -1.1519244 1809 510
2.7712607 2.535162 -1.1507332 1794 508
2.877996 2.5491474 -1.1502475 1685 504
2.9253345 2.519629 -1.1519833 1723 501
0.64216453 2.5657229 -1.1760848 2311 639.5
0.67838234 2.573611 -1.1768705 2326 636.79999
0.7298488 2.5685782 -1.1740021 2357.25 632.75
0.77173853 2.5713463 -1.1763364 2354.2 629.60004
0.82551461 2.5654457 -1.1738634 2335.4001 625.40002
0.87215382 2.5722256 -1.1737305 2294 622
0.93005735 2.5735719 -1.1746895 2304.1431 617.71429
0.95912063 2.5714016 -1.1727124 2315 615.5
1.0245588 2.5713096 -1.1741768 2290.7144 610.71429
1.0705442 2.5816886 -1.1735098 2266.6001 607.60004
1.1246488 2.5726514 -1.1716653 2275.6667 603.5
1.1851188 2.5829046 -1.1755083 2307.25 599.5
1.2257531 2.5712781 -1.1716032 2244 596.33337
1.2818553 2.5733356 -1.1715901 2246.25 592.5
1.3248782 2.5729485 -1.1677783 2227 589.5
1.3771356 2.5738325 -1.168488 2236.3335 586
1.4264896 2.5675349 -1.1658285 2223 582.5
1.4772279 2.5773711 -1.1707095 2166 579.5
1.5207858 2.5724049 -1.1686385 2217.5 576.5
1.5739574 2.5697513 -1.1677016 2187 573
1.6214412 2.5762277 -1.1643631 2196.4287 570.14288
1.6726066 2.5613513 -1.1643405 2196 566.5
1.7235459 2.575521 -1.1660739 2160.3335 563.83337
1.77722 2.5660839 -1.163267 2121.75 560.25
1.827885 2.5742652 -1.1635154 2127.8335 557.5
1.8764542 2.5843091 -1.1645998 2146 555
1.9296316 2.5717568 -1.1629283 2109.6667 551.5
1.9744077 2.5819194 -1.165328 2120.3335 549.33337
2.027631 2.5785961 -1.1620501 2082.6001 546.20001
2.0683181 2.5705001 -1.1605823 2037 543.66669
2.1301 2.5885913 -1.1641866 2036.3334 541
2.1820748 2.5826392 -1.1617377 1978.3334 538
2.2222629 2.5730717 -1.1575553 1958.5 535.5
2.273932 2.5767195 -1.1595302 1943.6667 533
2.3268371 2.5690563 -1.1562977 1971.3334 530
2.3820207 2.5802999 -1.1569195 1910.3334 527.66669
2.4214158 2.5741487 -1.1555259 1895.75 525.5
2.4793091 2.5733507 -1.1542594 1852.3334 522.66669
2.5233493 2.5739148 -1.1538124 1819.8 520.60004
2.5796463 2.560436 -1.1537584 1780.5 517.5
2.6285038 2.5740099 -1.1529894 1779.75 515.75
2.6863408 2.5843048 -1.1507986 1779.5 513.5
2.727988 2.5701802 -1.1532565 1774.8 511.20001
2.7835412 2.5893459 -1.1536443 1758 509.5
2.8107815 2.5674982 -1.1510416 1763.5 507.5
2.8586874 2.5536175 -1.1521984 1771 505
2.9199381 2.5821919 -1.1511589 1667 503.5
2.9540777 2.5795219 -1.1501364 1725 502
3.0906022 2.5876906 -1.1546289 1651 497
3.1110165 2.5826888 -1.1524669 1641 496
0.64644825 2.6275873 -1.1815555 2311 640
0.67589593 2.6219754 -1.179099 2290.3335 637.66669
0.72061414 2.623158 -1.1787879 2289.7144 634.28577
0.77341712 2.6280553 -1.1809006 2287.8 630.40002
0.82047838 2.6193404 -1.1775936 2290.5715 626.71429
0.87768954 2.6337371 -1.1817844 2268.25 622.75
0.9176529 2.6241207 -1.1767968 2278.2 619.60004
0.97909731 2.6251943 -1.1797154 2252.1667 615.16669
1.018944 2.6238885 -1.1780474 2243.75 612.25
1.0723656 2.6282547 -1.176469 2221.75 608.5
1.1181493 2.6183717 -1.172173 2231.6667 605
1.1773415 2.6319845 -1.1758028 2235 601.20001
1.2255236 2.6226256 -1.1717728 2197.6001 597.60004
1.2775798 2.6202703 -1.1739526 2183 594
1.3239665 2.6275043 -1.1701108 2202.1667 591
1.3767996 2.6234274 -1.1729892 2195.4001 587.40002
1.426613 2.6272111 -1.1720375 2196.6001 584.20001
1.4723368 2.6193464 -1.1716512 2218.8 581
1.5262121 2.6293514 -1.1706145 2177.6001 577.79999
1.574664 2.6258762 -1.1732554 2177 574.66669
1.6304049 2.6384628 -1.1694816 2183.25 571.5
1.676404 2.6219144 -1.1710186 2174 568.20001
1.7228659 2.6301696 -1.169161 2131.6001 565.60004
1.7660346 2.6147575 -1.1667817 2129 562.5
1.8177096 2.6308503 -1.1707405 2124.75 560
1.872741 2.6244435 -1.16447 2106.75 556.5
1.9289742 2.6299286 -1.1672858 2108 553.5
1.9712312 2.626811 -1.1661055 2085 551
2.0145607 2.6294606 -1.1611347 2006.4 548.60004
