# .PCD v0.7 - Point Cloud Data file format
VERSION 0.7
FIELDS x y z intensities index
SIZE 4 4 4 4 4
TYPE F F F F F
COUNT 1 1 1 1 1
WIDTH 1029
HEIGHT 1
VIEWPOINT 0 0 0 1 0 0 0
POINTS 1029
DATA ascii
4.7602344 -4.0573273 -1.0799607 1996 153
5.1820216 -4.0565248 -1.061915 1848 163
5.2304554 -4.0589819 -1.0628254 1734 164
5.2712574 -4.0550103 -1.0619889 1887 165
2.6126792 -4.0108867 -1.0966651 2567.5 85.5
2.7459025 -4.0476899 -1.0869943 2571 90
2.773895 -4.0317507 -1.082755 2657.5 91.5
2.8258739 -4.0321717 -1.0831487 2624.5 93.5
2.8529739 -4.0145254 -1.0784346 2625 95
3.1745715 -4.0158272 -1.0602791 2451.3335 107
3.2415979 -4.0294852 -1.064329 2530 109
3.2837298 -4.0283813 -1.0642552 2399.5 110.5
3.3411021 -4.0095506 -1.0594711 2550 113
3.4139752 -4.0088363 -1.0596669 2473 115.5
3.4812884 -4.0179291 -1.0624841 2352.5 117.5
3.5294178 -4.021153 -1.0636127 2477 119
3.6244025 -4.0062733 -1.0600972 2502.5 122.5
3.6821039 -4.0184059 -1.0636849 2379 124
3.7074637 -4.0113287 -1.0619071 2430 125
3.7610729 -4.0353751 -1.0686938 2334 126
3.8050652 -4.048183 -1.0723908 2411 127
4.4117136 -4.0202355 -1.0883367 2126 145
4.6997371 -4.0398216 -1.0749056 1952 152
4.7897353 -4.0473437 -1.0774193 1855 154
4.8334222 -4.0493679 -1.0781997 1781 155
4.9720755 -4.0289268 -1.0534718 2118 159
5.2965651 -4.0386424 -1.0577799 1814 166
5.3257265 -4.0251546 -1.0543559 1900 167
5.3971605 -4.0438905 -1.0597088 1607 168
5.4059858 -4.0143747 -1.0519228 1595 169
2.6360457 -3.988848 -1.0906091 2663 87
2.6509948 -3.9732575 -1.0863167 2616 88
2.8668857 -3.9778686 -1.0684152 2591.5 96.5
2.9166319 -3.973999 -1.0676155 2541 98.5
2.970516 -3.9751284 -1.0682144 2552 100.5
3.011945 -3.958343 -1.0638139 2544 102.5
3.0559676 -3.9630444 -1.0653437 2474 104
3.2948673 -3.9879787 -1.0533928 2519 112
3.3493705 -3.9837341 -1.0525362 2504 114
3.5291324 -3.9851334 -1.053874 2405 120
3.5650802 -3.9914126 -1.0557634 2384 121
3.7969394 -3.9634695 -1.0694206 2238 129
3.8383322 -3.9729223 -1.0722446 1802 130
4.319891 -3.963469 -1.0925018 1799 144
4.418767 -3.9743052 -1.0757272 2074.5 146.5
4.8157678 -3.9812255 -1.0596845 1866.5 156.5
2.5413239 -3.9495826 -1.0990903 2481 84
2.5687008 -3.9155235 -1.0895128 2619.6667 86
2.6705985 -3.9456859 -1.0786889 2640 89.5
2.7270675 -3.9363284 -1.0763665 2628.6667 92
2.7545512 -3.9020808 -1.0669085 2648 94
3.073792 -3.9322224 -1.056952 2429.5 105.5
3.2046432 -3.9049525 -1.0501423 2568 111
3.3208933 -3.9081247 -1.0516371 2529 115
3.3762817 -3.9049335 -1.0510544 2470 117
3.4134986 -3.9143167 -1.0538369 2528 118
3.7285049 -3.9242043 -1.0582429 2371 128
4.4457393 -3.9470062 -1.0683545 2012 148
4.4789195 -3.9425452 -1.0673034 1987 149
4.5262146 -3.933146 -1.0649681 1924 150.5
4.5728235 -3.9055328 -1.0576136 2013 152.5
4.6305542 -3.9043002 -1.0575829 1840 154
2.4975982 -3.8728991 -1.0972337 2531 84
2.6113582 -3.8678522 -1.0761304 2660.6667 89
2.6541274 -3.8583295 -1.0736407 2667 91
2.783493 -3.8704257 -1.0581853 2705 96
4.2070827 -3.8518186 -1.0801028 1801 144
4.2840834 -3.8954628 -1.0732371 2001 145
4.6400151 -3.8781838 -1.0504421 1757 155
2.4983094 -3.8356457 -1.0864066 2611 85
2.5257354 -3.8225722 -1.0827527 2659 86.5
2.6752582 -3.8345127 -1.0669539 2663.5 92.5
2.7010911 -3.8178632 -1.0623387 2662 94
2.8138282 -3.8410263 -1.0501024 2576 98
2.8673341 -3.8442619 -1.0512961 2713 100
3.7083712 -3.8290102 -1.051519 1770 130
4.2643013 -3.8431785 -1.0584675 2266 146
4.3099613 -3.8347661 -1.0563526 2049 147.5
2.4668627 -3.7795367 -1.0899695 2659.3335 85
2.5395131 -3.7880681 -1.072795 2724 88
2.5714397 -3.7820256 -1.0712097 2628.5 89.5
2.6060228 -3.7798464 -1.0707617 2543 91
2.7019539 -3.7828505 -1.0523467 2731 95
4.1171217 -3.7616923 -1.0735915 1877 144
4.176867 -3.7734962 -1.0575787 2187.5 145.5
2.4178517 -3.713717 -1.0899148 2613.5 84.5
2.4915791 -3.744364 -1.0796902 2742 87
2.5212235 -3.7174506 -1.0718825 2704 89
2.6289659 -3.7417867 -1.0598192 2650 93
2.6591191 -3.71491 -1.0521671 2669 95
4.0940719 -3.7074223 -1.0576895 2311 145
4.1282096 -3.7066407 -1.0576454 2287 146
2.351752 -3.6560283 -1.0918742 2605 83
2.4439101 -3.6819811 -1.0804925 2675 86.5
2.4604816 -3.6537898 -1.0720872 2632 88
2.5086339 -3.6566684 -1.0732136 2680 90
2.562922 -3.6733427 -1.0590494 2658 92
4.0228767 -3.6676426 -1.0652066 1951 144
2.3064547 -3.6124313 -1.0983295 2475 82
2.3780718 -3.6439297 -1.0883055 2684 84.5
2.4107916 -3.6240177 -1.0823748 2580 86.5
2.4803116 -3.6487918 -1.0706878 2570 89
2.5191483 -3.6197224 -1.0621376 2680 91.5
2.5936251 -3.6486459 -1.0519032 2588 94
4.018784 -3.6318641 -1.0545931 2244 145
2.2957335 -3.5529807 -1.0994083 2725 83
2.3253999 -3.5891378 -1.0911587 2702.5 83.5
2.3685184 -3.5691953 -1.0851648 2554 86
2.4304671 -3.5839176 -1.0701824 2511 88.5
2.4507763 -3.5628195 -1.0638212 2602 90
2.5390296 -3.5972888 -1.055485 2727 93
3.9464202 -3.5748148 -1.0562863 2133.5 144.5
2.3008335 -3.5257993 -1.0907985 2790 84
2.3903482 -3.5334284 -1.0741148 2559 88
2.4164238 -3.5219038 -1.0706571 2627 89.5
2.4722307 -3.5436172 -1.0580475 2658 91.5
2.5159736 -3.5405717 -1.0573493 2693 93.5
3.8707995 -3.5141158 -1.0565368 1961 144
2.2152908 -3.4507406 -1.086061 2586 82
2.2778225 -3.4683275 -1.0822077 2732.5 84.5
2.3342752 -3.4747648 -1.0747622 2641.6667 87
2.3765001 -3.4551616 -1.0687611 2664 89.5
2.4328463 -3.4957051 -1.0625656 2641 91
2.4660213 -3.4780445 -1.0572304 2713.6667 93
3.8811154 -3.4930511 -1.0501319 2132 145
3.9143524 -3.4931622 -1.0503451 2207 146
2.1811538 -3.423331 -1.0964675 2662 81
2.2326491 -3.4444077 -1.0841068 2734 83
2.2795479 -3.4339402 -1.0809753 2704 85.5
2.3187923 -3.4110179 -1.0737741 2724.3335 88
2.4207175 -3.421912 -1.0584345 2762.75 92.5
3.7772756 -3.4331591 -1.0597939 1916 143.5
2.1561563 -3.3762317 -1.0993448 2734 81
2.2167437 -3.3787019 -1.0819733 2766.6667 84
2.2693338 -3.3615978 -1.0766298 2765.6667 87
2.3196387 -3.3568385 -1.0753362 2720.5 89.5
2.3733878 -3.3783541 -1.0635054 2714.25 91.5
2.4141517 -3.3576427 -1.0570275 2818 94
2.0276017 -3.3249516 -1.0993458 2725 76
2.1292443 -3.3094025 -1.0946136 2725 81.5
2.1740863 -3.3378453 -1.0865993 2738.6667 83
2.2160664 -3.3219428 -1.0815072 2736.5 85.5
2.2549708 -3.3172841 -1.0801599 2717.5 87.5
2.3373246 -3.3187394 -1.0628939 2717.5 91.5
2.3580515 -3.3016033 -1.057367 2765 93
2.0865593 -3.2502441 -1.0917093 2648 81
2.1473591 -3.2890329 -1.0877881 2871 83
2.1776819 -3.2720029 -1.0821643 2762 85
2.2171817 -3.2532449 -1.076003 2732 87.5
2.2722747 -3.2792664 -1.0675344 2716 89.5
2.322752 -3.2598059 -1.0612979 2792.25 92.5
2.3805408 -3.2871184 -1.052722 2800 94.5
2.0195675 -3.21527 -1.0973239 2792 78.5
2.0655048 -3.2098053 -1.0956573 2818 81
2.119951 -3.2391734 -1.0880688 2781 83
2.166954 -3.2174926 -1.0808393 2758.6667 86
2.2441711 -3.246927 -1.0740021 2775 89
2.2660618 -3.2171237 -1.0639905 2782.3335 91
2.3282764 -3.2005405 -1.0586921 2820.5 94.5
2.3595483 -3.2177134 -1.0560164 2818.5 95.5
2.0319791 -3.1648846 -1.097836 2749 80.5
2.0921345 -3.1726518 -1.0827668 2849 83.5
2.1306126 -3.1547985 -1.0767126 2753.5 86
2.1860466 -3.1698866 -1.0763211 2800 88.333336
2.2189393 -3.1705666 -1.0693469 2784.25 90
2.2786567 -3.1701059 -1.060805 2812.75 93
2.3136954 -3.1590083 -1.0614462 2847 95
2.0374701 -3.1233191 -1.0914812 2919 82
2.0783277 -3.119807 -1.0862257 2801.75 84.25
2.1223001 -3.1276348 -1.0790567 2838.6667 86.333336
2.1552343 -3.1100149 -1.0789447 2871.5 88.5
2.2296271 -3.1213014 -1.0655 2815.3335 92
2.2732625 -3.1101761 -1.0618348 2890 94.5
2.3216665 -3.1404276 -1.0550743 2872 96
1.9881048 -3.0662551 -1.0946493 2846.6667 81
2.0290689 -3.0809431 -1.0924083 2857.5 82.75
2.0708067 -3.0788944 -1.0892756 2892.6667 85
2.1213012 -3.0678918 -1.0803983 2800.3335 88
2.176805 -3.0659347 -1.0674863 2844.25 91
2.231905 -3.0742402 -1.0666075 2789 93.5
2.2720017 -3.0759549 -1.0585823 2859.5 95.5
2.3117023 -3.091207 -1.055389 2864 97
1.9964617 -3.013232 -1.0905759 2890 83
2.0274744 -3.017257 -1.0922444 2939 84.5
2.0745838 -3.0248945 -1.0860722 2855.6001 86.800003
2.1326854 -3.0217676 -1.075251 2819.5 90
2.1716819 -3.0223327 -1.071802 2828 92
2.2109649 -3.0384617 -1.0702361 2824.5 93.5
2.2558827 -3.0357513 -1.0530143 2907 96
1.8382841 -2.9539309 -1.0998203 2945 76
1.9488567 -2.9915273 -1.0982347 2785 81
1.9816411 -2.9841399 -1.0956267 2863 83
2.0338459 -2.9771819 -1.0932878 2892 86
2.0765996 -2.9778764 -1.0831317 2857.3335 88.333336
2.1224527 -2.9614854 -1.0720119 2858 91.333336
2.1829965 -2.9786396 -1.0635594 2750 94
2.2167463 -2.9725294 -1.0539116 2868.25 96
2.2766008 -2.9716899 -1.0539376 2916.5 99
2.3068774 -2.9876599 -1.0523716 2899 100
1.9402951 -2.9420245 -1.0958229 2905 82
1.9769411 -2.929775 -1.0967116 2861 84.333336
2.0296378 -2.9215155 -1.0884612 2910.25 87.5
2.0784082 -2.9276206 -1.0788528 2902 90
2.1264906 -2.9232764 -1.0695093 2821.5 92.75
2.1796451 -2.926513 -1.0593119 2893.25 95.5
2.2306707 -2.9211242 -1.0525827 2839.6667 98.333336
2.2535546 -2.9051456 -1.0517668 2890 100
1.8747858 -2.8541939 -1.0939413 2983 81
1.9243263 -2.8729904 -1.0961223 2939.1667 83.166672
1.9785331 -2.8781428 -1.0940651 2898 86
2.0303314 -2.8743401 -1.086362 2888.6667 89
2.0866032 -2.8932428 -1.0779471 2872 91.5
2.1276386 -2.8695331 -1.0690929 2929.75 94.5
2.1622419 -2.8829036 -1.0584083 2894 96
2.2100666 -2.8677454 -1.0529499 2918 99
1.7904303 -2.8255255 -1.0983469 2972 77
1.882313 -2.8176119 -1.0956919 3065.5 82.5
1.9221238 -2.809757 -1.0927716 2939 85
1.9766372 -2.8211236 -1.09219 2900.3335 87.666672
2.0281525 -2.8320384 -1.0820019 2881.5 90.25
2.0646398 -2.8253417 -1.0755193 2913 92.5
2.1208413 -2.8272471 -1.0685652 2908.75 95.5
2.1698265 -2.8264205 -1.0590416 2895.6001 98.200005
2.2093081 -2.8345423 -1.0561422 2908 100
1.834527 -2.777416 -1.0958477 3031.6667 81
1.876101 -2.7737455 -1.0945892 3003.5 83.5
1.9261154 -2.7641056 -1.0909551 2976 86.666672
1.9859464 -2.7655482 -1.0863628 2906.6667 90
2.0172272 -2.7750773 -1.0794305 2980.25 91.5
2.0766449 -2.7698517 -1.0697112 2924 95
2.1183336 -2.7676618 -1.0664287 2808 97.333336
2.1702981 -2.7723033 -1.0593152 2920.75 100
2.206286 -2.7857051 -1.0528973 2938.5 101.5
1.8300909 -2.736608 -1.0953391 3021.3335 82
1.8797069 -2.7144134 -1.0987529 2957.25 85.5
1.923274 -2.7314072 -1.0937171 2979 87.5
1.9687318 -2.7205582 -1.0854778 2930 90.5
2.0263715 -2.7293818 -1.0774207 2971.25 93.5
2.0869107 -2.7105837 -1.0701284 2830 97.5
2.1257725 -2.7231255 -1.0632678 2899.5 99.25
2.1747289 -2.7199781 -1.0582695 2950.6667 102
1.8186212 -2.6832361 -1.0949482 2968.3335 83
1.8711008 -2.653924 -1.0937507 2927 87
1.9189544 -2.67768 -1.0918348 2940.5 89
1.9754826 -2.6787322 -1.0844557 2930.25 92.25
2.0188787 -2.6770728 -1.0783377 2991.4001 94.800003
2.0661178 -2.6777248 -1.068449 2953.5 97.5
2.1189849 -2.6732609 -1.0614078 2956.4001 100.6
2.1697636 -2.6702507 -1.0542207 3020.5 103.5
1.8305311 -2.6254373 -1.0975386 3006 85.5
1.8716722 -2.6228452 -1.0966551 2896 88
1.9248898 -2.6228518 -1.0872773 3009.8 91.200005
1.9707934 -2.6186647 -1.0833514 3009.25 94
2.0231922 -2.6336436 -1.0779703 2953.25 96.5
2.0705864 -2.631366 -1.0732481 2949 99.25
2.1224437 -2.6236839 -1.0610347 2944.6667 102.5
2.1616769 -2.6296382 -1.0531487 3014 104.5
1.7832457 -2.58582 -1.0955397 3100 84
1.8493738 -2.5533128 -1.0958934 2938 89
1.8785677 -2.5693326 -1.0945566 3009.2 90.200005
1.9254245 -2.5724986 -1.0926991 3056.6667 92.833336
1.9743569 -2.5712476 -1.0841372 2974.2 95.800003
2.0280576 -2.5840902 -1.0755743 2953.3335 98.5
2.0733185 -2.5778008 -1.0678357 3003.6667 101.33334
2.1242056 -2.568856 -1.0559644 2995.4001 104.6
2.1677785 -2.5777948 -1.0526323 3006.3335 106.66667
1.8393607 -2.5204811 -1.0963225 2985 89.5
1.8778504 -2.5149484 -1.0940654 3039 92
1.9258375 -2.5249908 -1.0913177 3048.75 94.5
1.9796455 -2.5370214 -1.0859051 2970.75 97.25
2.0224075 -2.5262699 -1.0779001 3038.8335 100.16667
2.0722179 -2.5300717 -1.0653551 3025.5 103
2.1337342 -2.5150242 -1.059178 2938.25 107
2.1744633 -2.523936 -1.0506296 3033.3335 109
1.7947344 -2.4858921 -1.095462 3084 88
1.831076 -2.490437 -1.0977271 2980 90
1.8801162 -2.478528 -1.0974987 3035.3335 93.333336
1.92099 -2.4781561 -1.0905011 2996.2859 95.857147
1.9747379 -2.4743993 -1.0863056 3043.5 99.166672
2.0253811 -2.4806154 -1.0753168 3024.7144 102.00001
2.0764754 -2.4823699 -1.0624291 2998 105
2.116164 -2.4763181 -1.0565126 2975 107.5
1.8371744 -2.424787 -1.0959432 3064 92.666672
1.8804262 -2.4212065 -1.0990571 2996.6667 95.333336
1.9318655 -2.4269922 -1.09171 3044.1431 98.285721
1.9765415 -2.4270687 -1.0843065 2994.3335 101
2.0186219 -2.4232378 -1.0745028 2942.5715 103.71429
2.0708933 -2.4290078 -1.0670203 2958.8572 106.57143
2.1212618 -2.4332924 -1.0589008 2999.3335 109.33334
2.1596901 -2.448096 -1.0512097 2971 111
1.7688882 -2.367075 -1.0961106 3091 90.5
1.8728507 -2.3795853 -1.096989 3058.6001 96.400002
1.9242316 -2.3746369 -1.0925297 3073.2859 99.714287
1.9745865 -2.3747911 -1.0811293 3018.5715 102.85715
2.0293531 -2.3800447 -1.0781695 2988.4287 105.85715
2.0675893 -2.3657327 -1.0645307 2989 108.8
2.1185768 -2.3757763 -1.0578463 3007 111.375
2.158092 -2.3661785 -1.0526332 2999 114
1.765262 -2.3448718 -1.0995846 3113 91
1.8431835 -2.312983 -1.0980377 3073 97
1.8780751 -2.3236957 -1.0967007 3038.25 98.75
1.9318575 -2.3262744 -1.089473 3041.4287 102.00001
1.9690275 -2.3214102 -1.0824418 3032 104.5
2.0256193 -2.3227892 -1.0764771 3005.6667 107.83334
2.0694163 -2.3242223 -1.0637431 3039.1667 110.5
2.1286831 -2.32634 -1.0597056 3051.6001 113.8
2.150528 -2.3033302 -1.054302 3005 116
1.7185152 -2.2760301 -1.099497 3134.5 90.5
1.8386331 -2.2527585 -1.0955169 3161 99
1.8753418 -2.2776544 -1.0943975 3078.3335 100.33334
1.9231293 -2.2768116 -1.0923089 3066.5715 103.28572
1.9800549 -2.2803411 -1.0843556 3064.8889 106.66666
2.0266407 -2.2751219 -1.0768331 3025.4287 109.71429
2.0760987 -2.2760875 -1.0679642 3018.2222 112.66666
2.125874 -2.277575 -1.0623366 3030.8335 115.5
2.1547782 -2.2821364 -1.0578705 3120 117
1.7791935 -2.205301 -1.0986209 3111 97
1.8275397 -2.2060859 -1.0993025 3096 100
1.8739209 -2.2138534 -1.0944273 3129.6667 102.66667
1.9269795 -2.2274735 -1.0936213 3075.75 105.375
1.9733552 -2.2271085 -1.0925434 3052.6667 108.16667
2.0236173 -2.2221134 -1.079736 3043.4446 111.55556
2.077358 -2.2265053 -1.0741221 3079.2859 114.57143
2.1220615 -2.2224691 -1.0641773 3040.4446 117.44444
2.1751344 -2.2273598 -1.0529774 3050.4001 120.4
2.2175074 -2.2090635 -1.0580904 3060.6667 123.33334
1.827342 -2.170836 -1.0993952 3036.6667 101.33334
1.8824002 -2.1934352 -1.0931431 3238 104
1.925909 -2.1775813 -1.0961407 3104.8 107.2
1.9788996 -2.1812813 -1.0904152 3104.8889 110.33334
2.027509 -2.1710901 -1.0825107 3096.5 113.75
2.0765703 -2.1716335 -1.0730493 3099.75 116.75
2.1335568 -2.1795125 -1.0625063 3035.2859 119.85715
2.1740184 -2.1728506 -1.059399 3025.4287 122.42857
2.2147012 -2.1747999 -1.0542878 2990.3335 124.66667
1.7486024 -2.1267662 -1.0999637 3071 98
1.82263 -2.1344225 -1.0971417 3073 102.5
1.9234333 -2.1289315 -1.0948236 3063.1667 109
1.9699991 -2.1260304 -1.0911233 3100.6667 112
2.0207722 -2.1234944 -1.0853524 3122.2222 115.22222
2.0781648 -2.1315012 -1.0719063 3145.6001 118.5
2.1193607 -2.1252408 -1.0684301 3117.3335 121.16667
2.1766007 -2.1249645 -1.0619278 3079.1667 124.5
2.2136579 -2.1166818 -1.0557239 3071.25 127
2.2651219 -2.126215 -1.0565486 3038.3335 129.33334
1.7784572 -2.0996952 -1.0991926 3194 101
1.841849 -2.0506332 -1.0991491 3173 107
1.8750169 -2.0703249 -1.0969253 3148.3335 108.33334
1.926765 -2.0847807 -1.0938162 3089.4287 111.00001
1.9753045 -2.0742924 -1.0930783 3149.75 114.375
2.0289955 -2.0768375 -1.0849773 3127.375 117.625
2.072988 -2.0674813 -1.0767572 3112.625 120.75
2.127759 -2.0820699 -1.0711659 3090.875 123.375
2.1707742 -2.0736628 -1.0640619 3031.1431 126.28572
2.2233999 -2.0726125 -1.0582914 3020.1111 129.33333
2.2716541 -2.0611062 -1.0540226 3059.5 132.5
1.7716683 -2.0135303 -1.0985272 3106.5 104
1.8252718 -2.0128131 -1.0984354 3111.5 107.5
1.8839465 -2.0253861 -1.0955942 3112.5 110.75
1.9203422 -2.0319715 -1.0983191 3203.3335 112.66667
1.9737884 -2.0254779 -1.0937589 3152.0002 116.28572
2.023138 -2.0271144 -1.0858731 3079 119.33334
2.0753324 -2.0219128 -1.0825921 3077.3335 122.66667
2.1200387 -2.0287747 -1.074144 3085 125.125
2.1711664 -2.0248234 -1.0684327 3055.8572 128.28572
2.2283902 -2.0241089 -1.0628779 3093.2859 131.57144
2.2629404 -2.0249367 -1.0539852 3042.6001 133.60001
2.3099391 -2.0282533 -1.05088 2985 136
1.7228464 -1.9826716 -1.0998324 3094 102
1.8442074 -1.9808048 -1.0994883 3080 110
1.8596599 -1.9803951 -1.0993465 3094 111
1.9312797 -1.970585 -1.0940965 3120.1431 116.00001
1.9762348 -1.9771819 -1.0921352 3069.5 118.5
2.0254891 -1.9719565 -1.0872771 3129 121.77778
2.0747101 -1.9721104 -1.0818088 3118.1111 124.77778
2.1274996 -1.9733388 -1.0757127 3085.4446 127.88889
2.1702108 -1.9750891 -1.0704432 3059.3335 130.33334
2.2227242 -1.980718 -1.0644063 3036.3333 133.11111
2.2678566 -1.9672832 -1.0576801 3101.8572 136.28572
2.332406 -1.9734952 -1.0532129 3034.5 139.5
2.3718398 -1.9851454 -1.0534601 3036 141
2.410718 -1.9614341 -1.0533954 2946 144
1.8317783 -1.9382343 -1.0987583 3036 111
1.8841629 -1.9320405 -1.0956296 3167.6667 114.66667
1.9297348 -1.9217591 -1.0933403 3196.8572 118.00001
1.9724835 -1.9197 -1.0903335 3175.6667 120.77778
2.0293398 -1.9353148 -1.0931585 3164.5715 123.42857
2.0728989 -1.9207703 -1.0822351 3088.5557 126.88889
2.127017 -1.9236253 -1.0817014 3101.625 129.875
2.1700387 -1.9326844 -1.0724375 3076 132.125
2.2226238 -1.9269559 -1.0680339 3091.625 135.375
2.2732635 -1.923856 -1.0574256 3092.375 138.5
2.323895 -1.9253421 -1.0543026 3038.8335 141.16667
2.3621111 -1.9283066 -1.0542474 3002 143
1.8187784 -1.8950627 -1.0980635 3093.5 112
1.8916909 -1.8689651 -1.097515 3225 117.8
1.9222249 -1.8807114 -1.0974163 3150.8 119.2
1.9771481 -1.8700619 -1.0912961 3132.6001 123.2
2.0227273 -1.880046 -1.0889283 3103 125.55556
2.0747635 -1.8741704 -1.0885887 3073.125 128.875
2.12802 -1.8771229 -1.0810953 3115.7778 132
2.1764038 -1.8774322 -1.0731616 3063.4546 134.90909
2.2266662 -1.8746777 -1.068571 3068.6365 137.90909
2.2736652 -1.874228 -1.0604029 3057.2222 140.66667
2.3220198 -1.873311 -1.0582203 3007.5 143.3
2.3796511 -1.8713179 -1.0548742 3047.8572 146.42857
2.4181504 -1.8756651 -1.0514568 2993.5 148.25
2.4735901 -1.8736433 -1.0534871 3005 151
2.6253233 -1.8530928 -1.0539378 3034 159
1.8772135 -1.8219103 -1.0952449 3222.3335 119
1.9243954 -1.8193049 -1.0981402 3260 122
1.9817764 -1.8261549 -1.0928015 3132.25 125.375
2.0202515 -1.8202788 -1.0909724 3135.8572 128
2.0745082 -1.8247212 -1.0878161 3087.5835 131.08334
2.1286645 -1.825736 -1.0841175 3131.625 134.25
2.175437 -1.8283236 -1.0798655 3072.875 136.875
2.2204974 -1.8197527 -1.0704942 3063.5 140
2.2755497 -1.8260897 -1.069217 3086.7 142.7
2.3273377 -1.8213018 -1.0630813 3015.9001 145.8
2.3778498 -1.8192071 -1.0562035 2992.5557 148.66667
2.4291604 -1.8289737 -1.0543804 3000.5 150.83334
2.4765372 -1.8185544 -1.0525444 2947.3335 153.66667
2.5202491 -1.8359135 -1.0512003 2901.6667 155
2.5811117 -1.8313183 -1.0527818 3049 158
2.6112089 -1.8076499 -1.0508187 2988.5 160.5
1.8335127 -1.7552736 -1.0999817 3202 119
1.9462173 -1.7634749 -1.0929182 3110 126
1.9739784 -1.7810749 -1.0955689 3159.6667 126.83334
2.0208232 -1.7699336 -1.0926483 3175.25 130.25
2.0670421 -1.7723417 -1.0882397 3176.0002 133
2.1232038 -1.7756872 -1.0876821 3143.3 136.10001
2.1712327 -1.7741925 -1.0832481 3084.5 139
2.2188272 -1.7827144 -1.0782763 3086.5 141.375
2.2701585 -1.7727805 -1.0754912 3049.3333 144.66667
2.3205142 -1.7745148 -1.0662116 3015.25 147.5
2.3728616 -1.7749305 -1.0617683 3032.0002 150.28572
2.424046 -1.7725594 -1.0600717 3017 153
2.4713895 -1.7690499 -1.0547011 2979.375 155.625
2.529891 -1.7773787 -1.0556027 3008.6001 158
2.5739677 -1.7744029 -1.0560673 2928.5 160.16667
2.6811213 -1.7878989 -1.0509953 2972.5 164.5
1.6875196 -1.7359813 -1.0997474 3207 110
1.7911972 -1.7184722 -1.0951933 3155 118
1.8265728 -1.7297043 -1.0962328 3156 119.8
1.9334916 -1.726923 -1.0950841 3190.6001 126.8
1.9745671 -1.7246637 -1.0963477 3161.8 129.40001
2.0233078 -1.7187254 -1.0919724 3143.125 132.75
2.0721245 -1.7307017 -1.0905205 3114.5 135.125
2.1201968 -1.7183787 -1.0871266 3051.8572 138.57144
2.1755066 -1.7244606 -1.0838859 3073.5 141.5
2.2253857 -1.727403 -1.0806082 3066.3 144.2
2.2791936 -1.7282543 -1.0725462 3047.0002 147.28572
2.3280907 -1.7280891 -1.0673819 3006.7144 150
2.3675189 -1.7273335 -1.0689654 3030.5715 152
2.4216001 -1.7231628 -1.0654448 3025.375 155
2.4717431 -1.7275652 -1.0590857 2985.2859 157.42857
2.5290482 -1.7288756 -1.0619862 2999.8572 160
2.5740223 -1.7230052 -1.0570357 2953.75 162.5
2.627176 -1.7186879 -1.0537347 2958.2 165.2
2.6673987 -1.7304616 -1.0515308 2983 166.5
1.7815647 -1.6793482 -1.0990047 3167.5 119
1.8127508 -1.6806645 -1.0997418 3216 121
1.9032421 -1.6783857 -1.098774 3085 127
1.9889971 -1.6728582 -1.0981778 3193 132.60001
2.0214198 -1.6701628 -1.0916086 3177.8889 134.88889
2.0747604 -1.6758493 -1.0877551 3092 137.90001
2.1251729 -1.6733671 -1.0852751 3038.4287 141
2.1773341 -1.6756449 -1.0859693 3057.3 143.8
2.2288284 -1.67836 -1.0818664 3097 146.625
2.2753267 -1.6762289 -1.0741574 3100.3638 149.45454
2.3223059 -1.6721295 -1.0693901 3033.25 152.25
2.3766694 -1.6791589 -1.0685862 3015.4287 154.71429
2.4234245 -1.6744877 -1.0676283 3028.7144 157.28572
2.4706333 -1.6783013 -1.0626526 3026.4446 159.55556
2.5266976 -1.6725212 -1.0618963 3023.875 162.5
2.5823846 -1.6739604 -1.0564693 2989 165.16667
2.6294467 -1.6870058 -1.0567806 3004.6667 166.66667
2.6755705 -1.6726997 -1.0520124 3004.5 169.5
1.7467217 -1.6277144 -1.0985763 3218 119
1.8491118 -1.6056305 -1.095093 3211 127
1.8922213 -1.6420487 -1.0979258 3182 128
1.9762642 -1.6251575 -1.0949233 3173.7144 134.14287
2.0268891 -1.6218712 -1.0924031 3137.7778 137.44444
2.0719759 -1.6260197 -1.086845 3047.4001 140.10001
2.1245184 -1.6229204 -1.0876123 3111.25 143.25
2.1767037 -1.624266 -1.088437 3087 146.09091
2.2230036 -1.6231304 -1.081557 3071.9092 148.90909
2.2773442 -1.6268106 -1.0799509 3100.3079 151.69231
2.3251278 -1.6217055 -1.0724856 3067.1111 154.66667
2.3708005 -1.6248468 -1.0676292 3017.2859 157
2.4261818 -1.622756 -1.0711768 3025 159.72728
2.4713836 -1.6250347 -1.0652559 3019.625 162
2.5270901 -1.6257924 -1.0618671 3014.8 164.7
2.5711236 -1.6216146 -1.0593883 3053.875 167
2.6190815 -1.626479 -1.0571826 3046.8572 169
2.6792476 -1.6207994 -1.0537812 2985.6667 172
2.7256813 -1.6290119 -1.051752 3008.6667 173.66667
1.6325626 -1.5815053 -1.0995715 3180 113
1.6936778 -1.5799112 -1.0985932 3287 117.5
1.7242548 -1.5860496 -1.0993636 3200.6667 119.33334
1.7676644 -1.5843225 -1.0966129 3179 122.5
1.8299564 -1.5965919 -1.0999148 3256 126
1.937279 -1.5704756 -1.0963404 3158.5 134.25
1.9746445 -1.5774918 -1.095889 3163.875 136.25
2.0259633 -1.5730135 -1.0917854 3116.9287 139.71429
2.0776732 -1.5751163 -1.0908922 3196.1001 142.7
2.1201115 -1.5704173 -1.0884281 3148.9092 145.45454
2.1755188 -1.5774301 -1.0870112 3112.7144 148.28572
2.2145801 -1.5696601 -1.0848081 3144.375 150.875
2.2724657 -1.5704689 -1.0802271 3114.2727 154.09091
2.3301752 -1.5771356 -1.0735542 3096.75 157
2.379071 -1.5749096 -1.0737497 3030.5715 159.57144
2.4298127 -1.5733631 -1.0706494 3010.5 162.25
2.4726019 -1.571206 -1.0680224 3064.625 164.5
2.5245578 -1.5721496 -1.0648906 2975.4446 167
2.5765967 -1.5729966 -1.0584514 2988.3333 169.55556
2.6254058 -1.5698419 -1.0548099 2974.3335 172
2.6794038 -1.5707335 -1.0538903 3023.3335 174.33334
2.7092505 -1.5747712 -1.0513661 3058.5 175.5
1.1242244 -1.5066031 -1.0991982 3106 74
1.6728742 -1.5258418 -1.0991759 3335.5 118.5
1.7629584 -1.5010724 -1.0991625 3195 126
1.8797296 -1.5316533 -1.0989461 3186.6667 132.33334
1.9280999 -1.5217686 -1.0958905 3130.6667 136
1.980044 -1.5219306 -1.0941072 3120.1431 139.28572
2.0278072 -1.525925 -1.0937141 3140 142
2.079953 -1.5242447 -1.0924733 3191.3 145.2
2.1352744 -1.526132 -1.092012 3123.2 148.3
2.1804173 -1.5313895 -1.0892936 3157 150.66667
2.226191 -1.5245434 -1.0834893 3117.7 153.7
2.2756805 -1.525631 -1.08015 3089.8 156.40001
2.3239791 -1.5217588 -1.0798486 3092.8 159.10001
2.3739307 -1.5270183 -1.0762758 3066.8 161.5
2.4247386 -1.5287141 -1.0740469 3050.4446 164
2.4746354 -1.527701 -1.0676434 3072.5557 166.66667
2.5300381 -1.5228021 -1.0656365 3021.7778 169.55556
2.5732319 -1.5269005 -1.058569 2996.8572 171.57144
2.6234257 -1.5209757 -1.0576328 2987.5557 174.11111
2.6695745 -1.5225228 -1.0545391 2968.4287 176.14287
2.7326906 -1.5189638 -1.0536011 2946 179
2.770822 -1.5169696 -1.0533063 2978 180.66667
2.8120527 -1.5258875 -1.0507631 2922.5 182
1.6379139 -1.4728544 -1.0977145 3240 118.5
1.8411158 -1.48534 -1.0995085 3196 132
1.877876 -1.4525368 -1.0988516 3192 136
1.9406798 -1.4752225 -1.096477 3189.6667 139
1.9705745 -1.4760724 -1.094913 3134.25 140.875
2.0236826 -1.4874014 -1.0963886 3142.5 143.5
2.0744004 -1.4777569 -1.0953662 3182 147
2.12391 -1.4789823 -1.0926733 3212.8889 149.88889
2.1764007 -1.4771154 -1.0904844 3196.2144 153
2.2258401 -1.4757886 -1.0869986 3155.1111 155.88889
2.2801189 -1.4751556 -1.0840234 3070.9092 158.90909
2.324919 -1.4661968 -1.07798 3063 161.875
2.3748767 -1.47866 -1.0783993 3077.2222 163.77779
2.4223707 -1.4728898 -1.0752114 3085.2 166.5
2.4741249 -1.4828616 -1.0689569 3047.8184 168.72728
2.5265739 -1.4731538 -1.0665812 3024.7144 171.71429
2.5773649 -1.484429 -1.0613118 3010.6667 173.66667
2.6245117 -1.4706043 -1.0604633 3029.8572 176.42857
2.6697996 -1.4787365 -1.056841 3024.875 178.125
2.720408 -1.4760023 -1.0549104 3014.1111 180.44444
2.786176 -1.4759444 -1.0528873 2998.6001 183.2
1.6405269 -1.4238149 -1.0981079 3252 121
1.6684017 -1.4241931 -1.0985775 3356.5 123
1.7213223 -1.4305511 -1.0981954 3227.5 126.5
1.9289463 -1.4249619 -1.0970149 3172.3335 140.66667
1.9679197 -1.4275802 -1.0962536 3180 143
2.0315228 -1.414436 -1.0961527 3178.5 147.5
2.0794265 -1.4236878 -1.0956866 3178.4446 149.88889
2.1255059 -1.4272567 -1.0955379 3139.6365 152.36365
2.1772041 -1.4185011 -1.0911745 3178.231 155.84616
2.2275655 -1.4273294 -1.0865787 3133.6667 158.33333
2.2725263 -1.4195933 -1.0841146 3077.0911 161.18182
2.3209908 -1.4258168 -1.0796095 3104.4446 163.55556
2.3764236 -1.424348 -1.077176 3071.875 166.5
2.4278936 -1.4273754 -1.0736208 3058.2222 169
2.4740443 -1.4237577 -1.0685784 3075.2222 171.55556
2.5297105 -1.4348916 -1.0658292 3050.4001 173.7
2.5751913 -1.4215328 -1.065251 3025.6001 176.40001
2.6230905 -1.429607 -1.0607787 3020.7144 178.28572
2.6772647 -1.4275205 -1.0586082 2991.5557 180.77779
2.7226691 -1.4226097 -1.0558078 2982.5 183
2.78866 -1.4217296 -1.0545799 2992.75 185.75
2.847753 -1.4140888 -1.0521328 2992 188.5
1.6384124 -1.3597162 -1.0960686 3347 124
1.6784486 -1.390336 -1.0990781 3348 125.33334
1.710307 -1.3639461 -1.0965797 3249 129
1.7614207 -1.3854564 -1.0976286 3277.5 131.5
1.8404697 -1.3628017 -1.0965061 3194 138
1.879355 -1.3807333 -1.0965395 3263.6667 139.66667
1.9173988 -1.3684874 -1.0975096 3235 142.66667
1.9793746 -1.3723384 -1.0947447 3187.7273 146.45454
2.0278926 -1.3693193 -1.0956337 3205.8335 149.5
2.0711045 -1.3678555 -1.0944624 3208.1667 152.16667
2.1214244 -1.3772506 -1.0919727 3159.2 154.7
2.1742761 -1.3731458 -1.094408 3140.375 157.75
2.2240446 -1.3713893 -1.088261 3141.5715 160.78572
2.2769403 -1.3721905 -1.0829196 3110.5 163.75
2.3282006 -1.3763187 -1.0827686 3120 166.18182
2.3721364 -1.3798046 -1.0743176 3116.4546 168.54546
2.4237189 -1.374743 -1.0733253 3074 171.33333
2.473407 -1.3765346 -1.070753 3056.8 173.7
2.5294037 -1.377828 -1.0675967 3073.4446 176.33333
2.5797811 -1.3723054 -1.0635579 3068.7144 179.00002
2.6243949 -1.3740429 -1.0627209 3053.7778 180.88889
2.6769297 -1.3780386 -1.0608243 3056.3 183
2.7247229 -1.3728013 -1.0552964 3005.2859 185.42857
2.7664449 -1.3762826 -1.053902 2996 187
2.8243692 -1.3716409 -1.0534974 2979.25 189.5
2.8571255 -1.3627844 -1.0578547 2964 191
2.9002345 -1.3820068 -1.0508904 3021 192
1.6357831 -1.3224343 -1.0987599 3261.25 125.5
1.677472 -1.3239284 -1.0985439 3346.6667 128.5
1.7179154 -1.3188763 -1.0982035 3321.6667 131.66667
1.7531623 -1.3441423 -1.0961381 3131 133
1.8115903 -1.312675 -1.0971537 3293.5 138.5
1.8728478 -1.334792 -1.0963401 3281.3335 141.5
1.9251968 -1.3196752 -1.0956814 3261.375 145.625
1.9787014 -1.3231978 -1.0944451 3281 148.83334
2.0238943 -1.3261101 -1.0945766 3244.8335 151.41667
2.0783005 -1.3256252 -1.0949501 3247.5 154.625
2.1221898 -1.3261118 -1.0916229 3196.3335 157.25
2.1748664 -1.3222798 -1.0894142 3148.6155 160.46155
2.2210755 -1.3208714 -1.0861456 3125.25 163.16667
2.2680714 -1.3263061 -1.0818951 3114 165.55556
2.3267841 -1.325458 -1.0782969 3120.1667 168.75
2.3786535 -1.3225021 -1.074986 3142.6001 171.60001
2.4199057 -1.3277557 -1.0724416 3107.8889 173.44444
2.4779034 -1.3247013 -1.0690464 3027 176.45454
2.5272355 -1.3251194 -1.0657266 3040.9092 178.81819
2.5773666 -1.3216017 -1.0659579 3050.8 181.2
2.6315207 -1.3234948 -1.0631878 3086.3333 183.55556
2.6739964 -1.3224798 -1.0589489 3064.2222 185.55556
2.7213697 -1.3295068 -1.0559901 3027.1431 187.28572
2.7720819 -1.3257557 -1.055608 2985.25 189.5
2.8232565 -1.3173164 -1.0523858 2963.8 192
2.8680778 -1.3066549 -1.057137 3062 194
2.9205115 -1.3108505 -1.0504019 2932 196
2.9623172 -1.3419408 -1.053097 2987 196
1.6346658 -1.2843667 -1.0973036 3301 127.33334
1.6716366 -1.2641008 -1.0985889 3402.5 131
1.7206154 -1.2642107 -1.0990181 3353 134.5
1.7790964 -1.2565446 -1.0983162 3287 139
1.8972402 -1.2656761 -1.0958996 3294.5 146.5
1.9291912 -1.2772108 -1.0949401 3239.3 148
1.9789321 -1.2770768 -1.0970104 3206.5 151
2.0275695 -1.2773697 -1.0952158 3190.5457 154
2.071245 -1.2727381 -1.0925143 3191.2727 156.90909
2.126344 -1.2798694 -1.0919948 3191.0911 159.72728
2.1724632 -1.2681388 -1.0864314 3142.3 163.10001
2.225724 -1.2754595 -1.0858269 3150.6365 165.63637
2.2756341 -1.2754488 -1.0785477 3131.375 168.5625
2.3290811 -1.2754484 -1.0771866 3140.6667 171.33333
2.3746068 -1.2786872 -1.076668 3084 173.44444
2.4209547 -1.2761815 -1.0718074 3118.25 176
2.4768445 -1.2832446 -1.0711377 3091.8 178.3
2.523731 -1.2695315 -1.0682958 3055.4001 181.2
2.5752399 -1.2739612 -1.0625737 3040.125 183.5
2.6259615 -1.2714553 -1.0599811 3094.6001 185.90001
2.6840351 -1.2757385 -1.0573679 3074.4446 188.22223
2.7314434 -1.2763566 -1.053871 3006.375 190.25
2.7812152 -1.2818263 -1.0528271 3019.6667 192
2.8298187 -1.2577674 -1.0519204 3040.25 195
2.8707478 -1.278569 -1.0539762 3013.5 195.5
2.9228466 -1.28871 -1.0526284 2950 197
1.4914173 -1.2256047 -1.0979936 2715 119
1.641027 -1.2183675 -1.0982764 3302 131
1.689245 -1.241694 -1.0960213 3325.5 133.5
1.7182286 -1.222455 -1.0966902 3309.5 136.5
1.778214 -1.2303309 -1.0961586 3328 140.33334
1.8344305 -1.2163327 -1.0995305 3269.3335 144.66667
1.8864672 -1.2166735 -1.095403 3202.25 148.25
1.9238564 -1.2324942 -1.0964466 3253.5 149.8
1.9745646 -1.226338 -1.0947392 3229.1335 153.33334
2.0250738 -1.2235514 -1.0921259 3187.3638 156.63637
2.0748668 -1.2242768 -1.0924319 3187 159.5
2.1225166 -1.231009 -1.0881265 3162.9231 162.07693
2.1751254 -1.2214484 -1.0869976 3172.5 165.5
2.2272694 -1.2269192 -1.082482 3108.6155 168.23077
2.278018 -1.229044 -1.0772839 3143.125 171
2.3274472 -1.2264452 -1.0768453 3123.7273 173.63637
2.3769174 -1.2255764 -1.0742172 3136.6667 176.22223
2.4262967 -1.2261555 -1.0721494 3076.9092 178.63637
2.47911 -1.2330712 -1.0710219 3107.7 180.8
2.522253 -1.2231747 -1.0631602 3113.3333 183.55556
2.5761068 -1.229719 -1.063207 3124.4001 185.60001
2.6215138 -1.2183679 -1.0595748 3101.7778 188.22223
2.6745496 -1.2289584 -1.0577549 3012.6667 190
2.7265401 -1.2151212 -1.0513895 3056 193
2.8266647 -1.2333632 -1.0518308 3039.75 196
2.8554435 -1.2252903 -1.0504085 2984 197.5
1.4758327 -1.1777413 -1.0989522 2839 120
1.5751176 -1.1768453 -1.0988039 2670 128
1.6256061 -1.1629785 -1.0963197 3243.3335 132.66667
1.6617775 -1.1756454 -1.0977668 3258.3335 134.66667
1.7013888 -1.1652236 -1.0992633 3427 138
1.7661467 -1.1784227 -1.0976079 3367 142
1.8268758 -1.1697747 -1.0987656 3322 146.5
1.8736014 -1.1743994 -1.0981061 3254.375 149.375
1.9270308 -1.1768886 -1.0975119 3284.0002 152.69231
1.9704071 -1.172747 -1.0905616 3202.4617 155.92308
2.0272546 -1.17693 -1.0933461 3184.0835 159
2.0766065 -1.1736512 -1.0871594 3170.8 162.33334
2.1289611 -1.1786721 -1.0863429 3203.9167 165.08334
2.1773524 -1.1741083 -1.0854741 3177.25 168
2.228987 -1.1750975 -1.0791109 3132.1541 171
2.2713323 -1.176542 -1.0745916 3146.3333 173.33333
2.3230739 -1.1757988 -1.0739431 3195.4167 176
2.3689573 -1.1757514 -1.0705649 3201.6001 178.40001
2.4264483 -1.1724001 -1.07081 3162.8184 181.27274
2.4755764 -1.1759471 -1.066921 3167.3079 183.53847
2.5279245 -1.1747168 -1.0625901 3140.125 186.125
2.5746579 -1.176134 -1.0622834 3133.9001 188.10001
2.6219733 -1.1703751 -1.0564591 3097.25 190.625
2.6612825 -1.1853057 -1.0537301 3014.6667 191.66667
2.7781606 -1.183229 -1.0507853 2999.5 196.5
2.8056509 -1.1924988 -1.0536028 3016 197
1.3274853 -1.1006514 -1.0964239 2999 111
1.4344357 -1.1096951 -1.0957406 3005 120
1.4619006 -1.13351 -1.0988287 2890 121
1.6305315 -1.1356193 -1.0991168 3308.5 134.25
1.6525314 -1.1329647 -1.0996711 3298 136
1.7602855 -1.1299642 -1.0974774 3391 144
1.8224717 -1.1252092 -1.0968525 3299.125 148.5
1.8829877 -1.1251951 -1.094913 3288.4287 152.57144
1.9269218 -1.129264 -1.0915343 3242.5835 155.33334
1.9744356 -1.1220016 -1.0914804 3255.125 158.625
2.0283523 -1.1283739 -1.0922649 3253.6431 161.5
2.073338 -1.1261836 -1.0886596 3185.9336 164.40001
2.1213696 -1.1236575 -1.0900354 3206.4167 167.16667
2.1748602 -1.12704 -1.0847906 3234.25 170.1875
2.2233067 -1.1251574 -1.0799955 3216.75 173.08334
2.274488 -1.1249896 -1.0743483 3184.4707 176
2.3252373 -1.1248226 -1.0739957 3180.6667 178.55556
2.3700995 -1.1256664 -1.0709944 3191.5835 180.83334
2.4259398 -1.1233857 -1.0689446 3150.3335 183.66667
2.4818172 -1.1258292 -1.0624543 3187.4001 186.40001
2.5271201 -1.1229645 -1.0631367 3125.7 188.5
2.5753963 -1.1243136 -1.0598019 3171.0835 190.66667
2.6257524 -1.1228291 -1.0562376 3141 193
2.6783273 -1.1195328 -1.0536597 2951.4001 195.40001
2.7147598 -1.1172352 -1.0523376 2866.5 197
2.7595658 -1.1321385 -1.0535101 2882 198
1.320212 -1.0830221 -1.0999268 2972 111
1.3970245 -1.0602336 -1.0990926 3031 119
1.4033595 -1.0713116 -1.0994176 2907 119
1.6370811 -1.0760101 -1.0977998 3358.25 137.75
1.6640266 -1.079967 -1.0957668 3314.3335 139.66667
1.748053 -1.0542513 -1.0953879 3361 147
1.7829694 -1.0757809 -1.0972803 3323.125 148.25
1.8170987 -1.071767 -1.0974653 3285.25 150.75
1.877223 -1.0731895 -1.0961004 3308.4001 154.7
1.9230134 -1.0761169 -1.0939046 3289.3159 157.57895
1.9804928 -1.0794265 -1.0947039 3232 160.91667
2.0197105 -1.0769876 -1.0895776 3220.0715 163.64287
2.075968 -1.0752155 -1.0904613 3194.5295 166.94118
2.126117 -1.074091 -1.0867295 3211.8335 170
2.1725821 -1.0791829 -1.083209 3207.1541 172.46155
2.222775 -1.0732417 -1.0795679 3227.2632 175.57895
2.2785487 -1.0766685 -1.0768729 3216.0002 178.40001
2.3272252 -1.0707535 -1.0725197 3199.9231 181.30769
2.3751576 -1.0762429 -1.0688083 3183.6667 183.53334
2.4293532 -1.0752163 -1.0653796 3130.0911 186.27274
2.4747791 -1.071331 -1.0654504 3178.4167 188.5
2.5246143 -1.0727072 -1.0608429 3133.231 190.84616
2.580497 -1.0807265 -1.0577416 3141.4167 193
2.6230121 -1.0715681 -1.0568062 3079.3333 195.22223
2.6773169 -1.079107 -1.0556939 3021 197.11111
2.7246311 -1.0788637 -1.0523093 3021.125 199.125
2.7752223 -1.0802875 -1.0518949 3051.3335 201
2.83285 -1.0698045 -1.0537707 3054 203.5
1.3685166 -1.0076332 -1.099352 3036 119
1.5607765 -1.0214779 -1.0989635 2818.5 134.5
1.6278378 -1.0289233 -1.0973384 3300.6001 139.40001
1.6632917 -1.0326096 -1.0949699 3323 142
1.7958002 -1.0148391 -1.0994231 3357 152
1.8364265 -1.0310519 -1.0980189 3304.1667 154
1.8803381 -1.0225328 -1.0969162 3336.6667 157.33333
1.9284492 -1.0218521 -1.0944188 3289.9092 160.54546
1.9727323 -1.0286267 -1.0918723 3214.8572 163.07144
2.0263085 -1.0261505 -1.0919067 3188.4375 166.375
2.0791452 -1.0249209 -1.0887426 3260.7859 169.64287
2.1271024 -1.0316046 -1.0856922 3265.0771 172.15385
2.171423 -1.0202612 -1.0837002 3282.5334 175.20001
2.2260292 -1.0245422 -1.0796547 3193.3572 178.07144
2.2741222 -1.0235976 -1.0743742 3178.5 180.83334
2.3233383 -1.022265 -1.0701497 3208.3079 183.53847
2.3783803 -1.0243578 -1.0668235 3158.4617 186.23077
2.4318368 -1.0237582 -1.0672215 3185.1001 188.7
2.4765916 -1.0229545 -1.063539 3137.6924 190.92308
2.5239694 -1.0239508 -1.0572851 3123.3335 193.25
2.576359 -1.0234066 -1.0569382 3130.8 195.5
2.6320269 -1.0256414 -1.0553393 3126.75 197.75
2.6733532 -1.0277777 -1.0544744 3097.3335 199.33334
2.7236786 -1.0297403 -1.0515419 3074.1667 201.33334
2.7731049 -1.0304574 -1.0521975 3031.125 203.125
2.8147907 -1.0299141 -1.0523896 3112 204.66667
1.2093771 -0.96727037 -1.0977684 3000 106
1.5204121 -0.98584491 -1.0991874 2780 133
1.557135 -0.96527827 -1.0982018 2751 137
1.6216168 -0.98497689 -1.0988321 3245 141
1.7219985 -0.96885145 -1.0957215 3289.3335 149.33334
1.7574253 -0.96319938 -1.0973707 3370 152
1.8219334 -0.97285485 -1.0976753 3303.8889 155.88889
1.881438 -0.98219967 -1.0973933 3235 159.33334
1.9238816 -0.97443694 -1.0912893 3248.6001 162.73334
1.9785455 -0.97812146 -1.0944766 3259.1431 165.71429
2.0227635 -0.97570139 -1.0898724 3256.7646 168.70589
2.0722198 -0.97035366 -1.0862627 3260.4119 172
2.1260617 -0.97820997 -1.0829244 3189.2002 174.8
2.1792707 -0.97684705 -1.0794605 3202.5457 177.9091
2.2268701 -0.9734872 -1.077535 3222.6431 180.64287
2.2737741 -0.97801411 -1.0708369 3188.4617 183.15385
2.3268397 -0.97579259 -1.0713526 3181.5457 185.81819
2.3701901 -0.97384214 -1.0679002 3184.2144 188.14287
2.4225824 -0.97476351 -1.0642666 3213.2 190.7
2.4731839 -0.97474378 -1.0632495 3175.6365 193
2.5163064 -0.97479665 -1.0605994 3149.3638 195
2.572166 -0.98241967 -1.0583674 3210.6667 197.11111
2.6190772 -0.9796173 -1.0533017 3152.2 199.40001
2.6779826 -0.96880937 -1.0522422 3115.5 202.25
2.7304618 -0.9772529 -1.0537436 3096.6001 203.8
2.7836061 -0.97448421 -1.0514047 3072 206
2.8258016 -0.97812891 -1.0518994 3025.3335 207.33334
1.4266311 -0.94816911 -1.0987469 2929 127
1.4863327 -0.92266983 -1.0979024 2843 133.33334
1.5264329 -0.92189705 -1.0988598 2836.2 136.60001
1.6285827 -0.91423655 -1.0981305 3309 145
1.6795542 -0.92316693 -1.0983361 3333.3335 148.33334
1.7238371 -0.91642869 -1.0969683 3350.0771 151.92308
1.7884421 -0.92060047 -1.0961183 3331.875 156.25
1.8273493 -0.92640275 -1.0956684 3312.8003 158.60001
1.8804212 -0.92317563 -1.0937616 3311.4375 162.3125
1.9279926 -0.92508376 -1.0894966 3301.7693 165.46155
1.9796829 -0.92441076 -1.0903547 3330 168.57895
2.0241444 -0.92695928 -1.0850188 3291.6155 171.38463
2.079725 -0.92367065 -1.0818847 3262.9412 174.88235
2.1251707 -0.92604434 -1.0768018 3239.3125 177.5625
2.1699572 -0.92411107 -1.0740741 3212.2668 180.20001
2.2270851 -0.92735904 -1.0718307 3213.5625 183.125
2.272269 -0.92443168 -1.0677141 3202.6667 185.75
2.3257413 -0.92519617 -1.068946 3246.231 188.23077
2.3731091 -0.92545456 -1.0621637 3227.875 190.8125
2.4273853 -0.92425579 -1.0596817 3158.231 193.46155
2.4794998 -0.92126054 -1.0608504 3134.4546 195.81819
2.5292847 -0.92804742 -1.0582523 3118.231 197.76924
2.5705109 -0.92884761 -1.0539252 3152.6667 199.66667
2.6344056 -0.93147403 -1.0521872 3158.6001 202.2
2.672565 -0.91739911 -1.0513953 3143.3335 204.33334
2.7011819 -0.9265694 -1.051892 2990 205
2.7503517 -0.9457413 -1.0519574 3150 206
1.0287571 -0.89627457 -1.0994556 3384 90
1.2905948 -0.86236399 -1.0943217 3098 119
1.3070598 -0.87269014 -1.0955391 3041 120
1.4565333 -0.87497151 -1.0997093 3144 133
1.5181429 -0.86880887 -1.0983379 2842.5 138.5
1.5762274 -0.89211208 -1.098761 2822 142
1.6481264 -0.88774413 -1.0938797 3305 148
1.6721275 -0.87808055 -1.0975345 3327.5 150
1.722604 -0.86712122 -1.0946261 3246.1111 154.33333
1.7776006 -0.87548798 -1.0960009 3252.0669 157.66667
1.8266541 -0.87525588 -1.0927485 3228.5 161.16667
1.8734776 -0.87521428 -1.0903288 3233.2942 164.35294
1.9239911 -0.87350929 -1.0884176 3165.5239 167.71429
1.9790938 -0.87845176 -1.0865526 3261.9336 170.93335
2.0209644 -0.87355834 -1.0816545 3111.2859 173.90477
2.0758314 -0.87497705 -1.0808194 3181.1177 177
2.1242282 -0.87546253 -1.0765243 3107.1765 179.88235
2.1765811 -0.87478387 -1.0719461 3087.762 182.95238
2.2293828 -0.86918211 -1.0691009 2999.0715 186.07144
2.2728188 -0.87530649 -1.064265 3087.2222 188.22223
2.3282118 -0.87457418 -1.0639069 2996.8572 190.92857
2.3734634 -0.8728838 -1.0598407 3024.1335 193.33334
2.424973 -0.87376964 -1.0556027 3048.6924 195.84616
2.4797888 -0.87096906 -1.0558521 2914.6667 198.33334
2.5271299 -0.87488431 -1.0531486 2936.5 200.3
2.5734582 -0.87641788 -1.0528055 2952.2859 202.14287
2.6239214 -0.85421658 -1.0544789 2457.5 205
1.4811667 -0.80807227 -1.0978098 2897.6667 138.33334
1.5142968 -0.83166605 -1.0973887 2855 140
1.5554857 -0.82716376 -1.0978329 2791.5 143.5
1.6313428 -0.82310605 -1.0984814 2878 149.5
1.6783607 -0.81359297 -1.0983577 2856.4287 153.42857
1.7242423 -0.82253724 -1.0969967 2846.5386 156.38463
1.7714025 -0.82405978 -1.0940404 2796.1111 159.77779
1.8214282 -0.82405216 -1.0939311 2812.4546 163.13637
1.875333 -0.81932527 -1.0897075 2776.0557 167.11111
1.9255025 -0.82220858 -1.0872147 2733.5264 170.26315
1.9704458 -0.82452881 -1.0851474 2765.5295 173
2.0229325 -0.82359701 -1.0832257 2693.2778 176.22223
2.0760686 -0.82383215 -1.081709 2615.1177 179.29411
2.1229024 -0.82425934 -1.0778807 2597.1177 182.05882
2.1783636 -0.82487017 -1.0750703 2520.8823 185.11765
2.2303135 -0.82353383 -1.0709339 2465.5295 188.05882
2.276715 -0.82400954 -1.0671692 2450.9231 190.53847
2.3196869 -0.82240146 -1.0627315 2435.8335 192.91667
2.3680944 -0.82585043 -1.0613817 2456.6155 195.07693
2.4181144 -0.82224411 -1.0583912 2342.3572 197.64287
2.4727049 -0.82552493 -1.0573628 2341.1667 199.91667
2.5254242 -0.82158035 -1.0553349 2341.3 202.40001
2.5675375 -0.8365823 -1.0530697 2373.8 203.60001
1.4786935 -0.76939869 -1.0964245 2873.75 140
1.5225337 -0.77881336 -1.0991938 2849 143
1.585113 -0.76655972 -1.0971912 2787 148.66667
1.6793581 -0.76914042 -1.0969307 2851.8184 155.63637
1.7248518 -0.77739239 -1.0957663 2826.5835 158.58334
1.7744882 -0.77470607 -1.0931091 2838.125 162.3125
1.8257667 -0.77264816 -1.0917684 2821.5911 165.9091
1.875266 -0.77477902 -1.0894419 2777.1501 169.15001
1.9273138 -0.77527469 -1.087201 2751.8501 172.5
1.9741544 -0.77158225 -1.0824955 2720.1667 175.77779
2.0276892 -0.77463573 -1.083783 2693.2 178.65001
2.0722721 -0.77675062 -1.0804225 2647.2002 181.26668
2.122175 -0.77307528 -1.075969 2592.8184 184.4091
2.1744823 -0.77570122 -1.0734233 2547.1875 187.1875
2.2255211 -0.77561712 -1.0705088 2520.8333 189.94444
2.2732248 -0.77469552 -1.0636905 2504.1335 192.73334
2.3208745 -0.77257019 -1.0626386 2502.4001 195.13335
2.372931 -0.7762509 -1.0607388 2433.2002 197.46667
2.4204021 -0.77390802 -1.0574613 2391.1431 199.85715
2.4732466 -0.77202445 -1.055058 2382.8 202.33334
2.5338109 -0.77991217 -1.0533659 2329.2 204.60001
2.5762033 -0.78744066 -1.0530872 2339 206
2.6047115 -0.76403189 -1.0541472 2469 208
1.2234428 -0.70778912 -1.0999826 3310 119
1.3011982 -0.72341853 -1.0992973 3229 126
1.4672904 -0.73422539 -1.0983737 3012.25 140.5
1.5232519 -0.71558917 -1.0977386 2870.3335 146
1.5616027 -0.72595382 -1.0983534 2845.7144 148.57144
1.6309023 -0.71342772 -1.0976069 2932 154.5
1.6696587 -0.72346348 -1.0953708 2892.4167 157.08334
1.7282676 -0.71521932 -1.0952564 2862.3638 161.63637
1.7724105 -0.72408456 -1.0920773 2885.6365 164.5
1.8279495 -0.72401077 -1.0911809 2859.6501 168.25
1.8709059 -0.72576588 -1.084977 2810.1501 171.35001
1.9270946 -0.72478849 -1.0862163 2784.5 174.77274
1.974551 -0.7256341 -1.0813311 2759.842 177.89474
2.0270379 -0.72327447 -1.0822901 2761.0557 180.94444
2.0747502 -0.72443628 -1.078126 2741.5 183.81819
2.1287973 -0.72657794 -1.0763776 2711.9336 186.73334
2.1730397 -0.72288197 -1.0722806 2703.5 189.44444
2.2227695 -0.72891545 -1.0673555 2602.9524 192
2.279155 -0.72733808 -1.067094 2564.6667 194.8
2.3272228 -0.7247169 -1.0656577 2529.647 197.23529
2.3729124 -0.7255522 -1.0592753 2465.6667 199.66667
2.4236035 -0.72492325 -1.058946 2513.0769 201.92308
2.4732947 -0.72413957 -1.0565361 2471.6001 204.20001
2.5157447 -0.73315483 -1.0519753 2399.4287 205.85715
2.5647492 -0.70146537 -1.0528698 2727 209
2.6126668 -0.7093935 -1.0533595 2522.5 210.5
1.2083434 -0.65286946 -1.0970839 3433 120
1.3656917 -0.66266429 -1.0989788 3263.6667 134.66667
1.4387436 -0.66681325 -1.0986037 3213.5 141
1.4984425 -0.68966281 -1.0993797 3102 145
1.532509 -0.67367661 -1.0974853 3121.2668 148.60001
1.6237227 -0.67458189 -1.0947658 3070.238 155.85715
1.6750568 -0.66647935 -1.0965428 2934.0002 159.85715
1.721092 -0.67273152 -1.092464 2930.625 163.16667
1.7763497 -0.67547512 -1.0943631 2919.75 166.7
1.8187178 -0.67359245 -1.0879931 2889.625 170.04167
1.8756307 -0.67525566 -1.0876515 2885.2917 173.625
1.9211841 -0.66995478 -1.0819902 2901.7727 177.04546
1.9766356 -0.67799073 -1.0834696 2952.8889 179.88889
2.0246489 -0.67352021 -1.0816348 2985.9446 182.94444
2.0761609 -0.67598343 -1.0803834 2978.5295 185.76471
2.12798 -0.67223597 -1.0777168 2944.2 188.85001
2.173265 -0.67845982 -1.0706421 2893.1001 191.40001
2.2271628 -0.67523402 -1.0704257 2894.3572 194.21429
2.2738252 -0.67577964 -1.0688534 2879.9412 196.52942
2.326247 -0.6753093 -1.062497 2855.8889 199.38889
2.3747113 -0.67433536 -1.0608793 2758 201.69232
2.4250865 -0.67448568 -1.0587225 2671.75 204
2.4764724 -0.67630374 -1.0559312 2675.9167 206.25
2.5208089 -0.67499375 -1.0559435 2678.0911 208.09091
2.5682404 -0.67050028 -1.0546262 2698.1335 210.20001
2.6225679 -0.67923021 -1.0536216 2584.6667 212
2.6652825 -0.67055237 -1.0518835 2628.75 214
1.1854409 -0.61156929 -1.0946167 3549.5 119.5
1.2455559 -0.61792809 -1.0998127 3324 125
1.2543383 -0.60027248 -1.0944688 3432 127
1.3226596 -0.61470568 -1.0948347 3422 133
1.4184387 -0.63619268 -1.0989206 3230.25 140.5
1.4783628 -0.62405324 -1.0963173 3180 146.33334
1.5236971 -0.62313658 -1.0977198 3118.75 150
1.5820657 -0.62591982 -1.096584 3156.1177 154.58824
1.6232325 -0.62896645 -1.0946401 3112.25 157.75
1.6774132 -0.62081426 -1.0929155 2973.05 162.2
1.7249082 -0.62710339 -1.0933133 2952.4092 165.27274
1.7729959 -0.62397861 -1.0906293 2926.8848 168.88463
1.8251828 -0.62457997 -1.088836 2894.9231 172.42308
1.875526 -0.62078798 -1.0850744 2909.48 176.03999
1.923529 -0.62569314 -1.081983 2902.6501 179
1.9747846 -0.62320966 -1.0816592 2996.3638 182.13637
2.0252481 -0.62516719 -1.0776248 3026.0417 185.20834
2.0799947 -0.6252194 -1.0780017 2979.4446 188.16667
2.1265082 -0.62546158 -1.07301 2956.9167 190.95834
2.1824331 -0.62583578 -1.0706106 2947.9446 193.94444
2.2295773 -0.62447959 -1.0707619 2922.4707 196.29411
2.2746696 -0.62549889 -1.0666971 2897.5715 198.66667
2.3265033 -0.62800711 -1.0617694 2872.5557 201.27779
2.3759792 -0.6241796 -1.0612253 2773.7859 203.64287
2.4271758 -0.62705958 -1.0560856 2700.25 206.0625
2.4714189 -0.62098801 -1.0558964 2688 208.125
2.5150084 -0.62700915 -1.055668 2705.4167 209.66667
2.5712676 -0.62166208 -1.0550328 2695.5835 212.08334
2.6109936 -0.62171811 -1.0515078 2646 213.8
2.6664443 -0.61178768 -1.054234 2641 216
0.80386162 -0.56021255 -1.0980445 3524 75
1.1822314 -0.5809626 -1.0995604 3485 120
1.231573 -0.55829185 -1.0991298 3461 126
1.3781769 -0.55781639 -1.0998645 3279 140
1.4098853 -0.57965881 -1.099599 3251 142
1.4841349 -0.57455212 -1.0969445 3221.0771 148.76924
1.5272297 -0.56938171 -1.0964516 3175.7273 152.54546
1.5759424 -0.57389629 -1.0934443 3195.6819 156.45454
1.6268986 -0.57510275 -1.0942936 3144.1741 160.21739
1.6753744 -0.57521355 -1.0917308 2979.074 163.96297
1.7249783 -0.57791501 -1.0914688 2969.5715 167.38095
1.7745339 -0.57254159 -1.0892069 2986 171.13043
1.8225198 -0.57398003 -1.0864438 2949.6191 174.42857
1.876919 -0.57395858 -1.0845544 2903.1741 178
1.9256392 -0.57487494 -1.0820191 2874.2632 181.10527
1.9742699 -0.57439893 -1.0798192 2859.8262 184.13043
2.0170588 -0.5737341 -1.075982 2850.2859 186.85715
2.0742524 -0.57482648 -1.0759732 2954.8518 189.92593
2.1227484 -0.57496274 -1.0693005 2957.6843 192.94737
2.1732187 -0.57087082 -1.0687096 2953.4375 195.6875
2.2241552 -0.5736891 -1.0662589 2939.238 198.2381
